# .PCD v0.7 - Point Cloud Data file format
VERSION 0.7
FIELDS x y z
SIZE 4 4 4
TYPE F F F
COUNT 1 1 1
WIDTH 1521
HEIGHT 1
VIEWPOINT 0 0 0 1 0 0 0
POINTS 1521
DATA ascii
6.3481636 -0.65121424 -1.2304754
6.4490547 -0.64974487 -1.2331007
6.5481181 -0.65039414 -1.2350675
6.650197 -0.65038908 -1.2369605
6.7502971 -0.64912266 -1.2394838
6.8488717 -0.65025002 -1.2422093
6.9505463 -0.65034676 -1.2450563
7.049552 -0.65093303 -1.2470406
7.1488137 -0.64948457 -1.2489507
7.2491517 -0.65151584 -1.2504334
7.3491049 -0.65217537 -1.2516645
7.446527 -0.65063435 -1.2531341
7.5492845 -0.65325856 -1.2553561
7.6526637 -0.65162051 -1.257866
7.7492466 -0.64920682 -1.2606488
7.8497448 -0.65099001 -1.263015
7.9516363 -0.64697284 -1.2650599
8.0458832 -0.64937788 -1.2666047
8.1488409 -0.6497727 -1.2694492
8.2509031 -0.6515128 -1.271391
8.351902 -0.64476383 -1.2741599
8.448143 -0.65117866 -1.276
8.547267 -0.65284175 -1.2781667
8.6516628 -0.65356255 -1.2809454
8.7508612 -0.64964819 -1.2826113
8.848134 -0.64805371 -1.2845984
8.9507589 -0.65693754 -1.2854553
9.055644 -0.65400892 -1.287232
9.1525288 -0.64502883 -1.287904
9.2476997 -0.64725006 -1.2901124
9.3408756 -0.65509725 -1.2935833
9.4436035 -0.64827079 -1.2962915
9.5410442 -0.6510883 -1.2983087
9.6199999 -0.66060001 -1.29975
10.3125 -0.6965 -1.29975
4.7603998 -0.51024997 -1.2004001
4.8576093 -0.53908992 -1.2010701
4.9504499 -0.54987502 -1.202475
5.0487418 -0.54466939 -1.2041453
5.1518188 -0.55668968 -1.2056811
5.2557416 -0.55353445 -1.2078276
5.3585286 -0.54736191 -1.2071891
5.4483018 -0.55094254 -1.2087401
5.5489125 -0.55054885 -1.2107338
5.6484327 -0.55000663 -1.2129111
5.7490625 -0.55011976 -1.2154418
5.8486052 -0.55086136 -1.218106
5.9479299 -0.55093497 -1.2209438
6.0483165 -0.55078024 -1.223411
6.1491394 -0.55029261 -1.2259828
6.2495255 -0.55027795 -1.2282581
6.3494554 -0.55047113 -1.230505
6.4484835 -0.5502013 -1.2334243
6.5484633 -0.55035818 -1.2359812
6.6476755 -0.54819304 -1.237931
6.7484803 -0.54962969 -1.240218
6.8485131 -0.55020058 -1.2427398
6.9513607 -0.54999214 -1.2452503
7.0502672 -0.55113238 -1.2471083
7.1502633 -0.54950929 -1.2492931
7.2469349 -0.55031413 -1.2506284
7.348619 -0.55043328 -1.2516168
7.4501348 -0.55175793 -1.2532777
7.5498619 -0.54999995 -1.255343
7.6452198 -0.54925001 -1.2578577
7.747736 -0.54572225 -1.2613381
7.8512549 -0.55117184 -1.2637447
7.9488811 -0.54763043 -1.2657013
8.0490503 -0.54784095 -1.2677444
8.143857 -0.55231428 -1.2695787
8.2500925 -0.55162847 -1.2720073
8.348856 -0.54925758 -1.2743636
8.4514713 -0.54955554 -1.2767777
8.5508823 -0.5507344 -1.2789921
8.6535826 -0.55022502 -1.280925
8.7516327 -0.55112499 -1.28365
8.8534613 -0.55058664 -1.2853558
8.9514275 -0.55154842 -1.2864033
9.0492086 -0.54897916 -1.2870522
9.1523361 -0.54538786 -1.2888708
9.2500906 -0.54628944 -1.2905264
9.3468981 -0.55355686 -1.2934316
9.4481659 -0.54915482 -1.2967024
9.5485001 -0.55330884 -1.2986912
9.6264381 -0.53899997 -1.299875
4.6940002 -0.423125 -1.20075
4.7650824 -0.44075003 -1.2009763
4.8514833 -0.44829166 -1.2020583
4.9507337 -0.45361662 -1.2039584
5.0465608 -0.44956896 -1.2048621
5.1523995 -0.45587501 -1.2064453
5.277482 -0.43254894 -1.2067528
5.3487945 -0.45053071 -1.2075982
5.4486709 -0.4507488 -1.2096599
5.5484686 -0.45039538 -1.2114514
5.6491904 -0.45056501 -1.2136379
5.7490067 -0.44967374 -1.2157943
5.8494105 -0.45060375 -1.2182807
5.949913 -0.45000732 -1.2213819
6.0488338 -0.45039737 -1.22416
6.1489277 -0.44955122 -1.2264102
6.2486405 -0.45049998 -1.2288337
6.3483839 -0.44894323 -1.2313256
6.4490232 -0.45034513 -1.2343342
6.5482512 -0.44983196 -1.2364845
6.6503525 -0.45041943 -1.2388909
6.7504711 -0.44931364 -1.2411795
6.8505931 -0.45064712 -1.2435122
6.953012 -0.44872558 -1.2459592
7.0509944 -0.45116007 -1.2477361
7.1533771 -0.45004338 -1.2496799
7.2508602 -0.44920003 -1.2512134
7.349298 -0.44974625 -1.2525991
7.4483085 -0.44995776 -1.2544154
7.5482912 -0.44798172 -1.2560134
7.6488214 -0.45108807 -1.2587733
7.7512245 -0.44679174 -1.2616874
7.846149 -0.45103407 -1.2639375
7.9479003 -0.44901049 -1.2661927
8.0501404 -0.45048174 -1.2681707
8.1497335 -0.44855234 -1.2706163
8.245348 -0.45396882 -1.2725502
8.347414 -0.45240131 -1.2750393
8.4496355 -0.4501572 -1.2771856
8.5500231 -0.45418549 -1.2794114
8.6499729 -0.45195684 -1.281931
8.7501469 -0.44822416 -1.2837757
8.8499393 -0.44933623 -1.2852499
8.9478312 -0.45598 -1.2866998
9.0466471 -0.44682291 -1.2883023
9.1466627 -0.45189133 -1.2893695
9.2477036 -0.45246425 -1.2917976
9.344965 -0.44897726 -1.2943521
9.445364 -0.44476131 -1.2967613
9.5555964 -0.44705772 -1.2988847
9.6020002 -0.48949999 -1.2995
4.6709642 -0.34039286 -1.2007501
4.7537417 -0.34671876 -1.2019923
4.8514924 -0.35204414 -1.2033603
4.9512506 -0.3504394 -1.2047956
5.0485559 -0.35247582 -1.2056129
5.1494999 -0.35413462 -1.2068461
5.2705011 -0.34319273 -1.2069855
5.3486571 -0.3511917 -1.2083406
5.4483414 -0.35117629 -1.2103466
5.5489402 -0.35040274 -1.2120577
5.6486726 -0.35013959 -1.2141488
5.7486324 -0.35000488 -1.2163441
5.8481693 -0.35037276 -1.2187287
5.9488726 -0.35076597 -1.2218833
6.0487456 -0.35067096 -1.224631
6.1488342 -0.35029373 -1.2269831
6.2494254 -0.34961849 -1.2293618
6.3486314 -0.35089302 -1.2320395
6.448287 -0.35039231 -1.2346985
6.5493698 -0.349626 -1.2372481
6.6498308 -0.35082605 -1.2395869
6.750556 -0.35056737 -1.2419784
6.8515735 -0.3518776 -1.244375
6.9503765 -0.34836835 -1.2469314
7.0508609 -0.3489759 -1.2487741
7.1478176 -0.34862494 -1.2506479
7.2472925 -0.35106617 -1.2528564
7.3491979 -0.34933451 -1.2543933
7.4466939 -0.3501434 -1.2558564
7.5469489 -0.34927782 -1.2573969
7.6487784 -0.35203916 -1.2594362
7.7471714 -0.35161823 -1.2617863
7.8481526 -0.34865344 -1.2640964
7.945919 -0.34440503 -1.2661148
8.0498781 -0.34906977 -1.2685292
8.1495905 -0.35277081 -1.2714931
8.2502947 -0.35110003 -1.2732563
8.3483181 -0.3499319 -1.2752348
8.4502211 -0.34991434 -1.2776141
8.5544205 -0.35225001 -1.280037
8.6541386 -0.35119355 -1.2821534
8.7513342 -0.35169438 -1.2839166
8.851223 -0.34863791 -1.2860087
8.9529581 -0.35822919 -1.2874581
9.048295 -0.35287499 -1.2889376
9.1481962 -0.34896737 -1.2905217
9.2388754 -0.34596589 -1.2923182
9.3430014 -0.34764129 -1.2944238
9.4446383 -0.3535125 -1.2968249
9.5357723 -0.34013635 -1.299159
4.5808501 -0.25885001 -1.2004001
4.6582994 -0.24815997 -1.20126
4.7495246 -0.24753225 -1.2027258
4.8496914 -0.24700734 -1.2042575
4.9496403 -0.24851564 -1.2052422
5.0498099 -0.25074139 -1.2060946
5.1741056 -0.23106402 -1.206439
5.2515612 -0.24897814 -1.2072068
5.3481803 -0.25056976 -1.2087959
5.4481921 -0.25048089 -1.2109661
5.5477533 -0.25124085 -1.2126575
5.6490593 -0.25091788 -1.2147868
5.7487292 -0.24970078 -1.2170249
5.8477178 -0.25037801 -1.2193966
5.9475641 -0.2501961 -1.2221651
6.0481606 -0.25125632 -1.2250235
6.1485367 -0.25021008 -1.2278336
6.2487588 -0.24947321 -1.2302548
6.3491726 -0.25099513 -1.2326696
6.4495029 -0.249842 -1.2354836
6.5489836 -0.25066939 -1.2381067
6.6494923 -0.25016668 -1.2406067
6.7499657 -0.25134054 -1.2429098
6.8486743 -0.25153095 -1.2452317
6.9480753 -0.24856928 -1.2477018
7.0483508 -0.25227055 -1.2499057
7.1493826 -0.24933106 -1.2520746
7.2474146 -0.2516472 -1.254209
7.3489947 -0.24798533 -1.2558532
7.4506454 -0.24906673 -1.2573416
7.5485716 -0.25000423 -1.2585295
7.6492786 -0.25193748 -1.259899
7.7512536 -0.24813204 -1.2620851
7.8486376 -0.24596429 -1.263908
7.9495068 -0.25003847 -1.2664167
8.0510941 -0.24935123 -1.2684348
8.1525822 -0.24966875 -1.2707813
8.2524357 -0.24929997 -1.2733643
8.3513317 -0.25182641 -1.2756666
8.4525824 -0.25027943 -1.2779045
8.5534506 -0.24976666 -1.2802334
8.6537676 -0.25344443 -1.2828149
8.7484837 -0.24308333 -1.2847002
8.8503618 -0.2492155 -1.2865257
8.9516993 -0.25443962 -1.2883446
9.0521097 -0.24291 -1.2897099
9.1465807 -0.25163639 -1.2916136
9.2497597 -0.25158694 -1.2926955
9.3534651 -0.24260715 -1.295131
9.45504 -0.25281581 -1.2975131
9.5406256 -0.2563214 -1.299
4.5775833 -0.14049999 -1.2009583
4.6486259 -0.15420832 -1.2020556
4.7477136 -0.15066177 -1.2032499
4.8487492 -0.15045969 -1.2045888
4.9485669 -0.14628336 -1.2055917
5.0519705 -0.15048528 -1.2063531
5.162797 -0.14232074 -1.2058787
5.2483883 -0.15023656 -1.2072576
5.3486204 -0.15134603 -1.2094316
5.4497514 -0.15040934 -1.2116195
5.5495381 -0.15066139 -1.2136353
5.6491871 -0.1495557 -1.2160081
5.7490501 -0.15067433 -1.2182792
5.8486538 -0.14987601 -1.2203022
5.9482841 -0.14944772 -1.2230541
6.0488105 -0.15147363 -1.225857
6.1503148 -0.14994723 -1.2290933
6.2488651 -0.14798114 -1.231384
6.3493128 -0.1515374 -1.2338165
6.450501 -0.15022609 -1.2366636
6.5507016 -0.14896162 -1.2393228
6.64925 -0.1501116 -1.2417543
6.748837 -0.1490524 -1.244162
6.8487124 -0.14896812 -1.2463504
6.9511209 -0.15045115 -1.2485833
7.0486088 -0.14955248 -1.2510401
7.1492395 -0.14975005 -1.2534168
7.2502398 -0.14934248 -1.2558973
7.350378 -0.14736156 -1.2575387
7.450727 -0.1494654 -1.258673
7.5470586 -0.14865252 -1.2601397
7.6470265 -0.14909323 -1.2613263
7.7461038 -0.14834373 -1.2628542
7.8491678 -0.14692649 -1.2642305
7.9486837 -0.14995919 -1.2662653
8.048214 -0.14852382 -1.2685179
8.1498766 -0.15265696 -1.2706221
8.2543278 -0.14660896 -1.2736604
8.3513927 -0.14815 -1.2755361
8.4480591 -0.15088235 -1.2779633
8.5495682 -0.15120456 -1.2805986
8.6501055 -0.14979544 -1.2830532
8.7506895 -0.14771999 -1.2854
8.8462152 -0.14303449 -1.2869915
8.9496603 -0.15258035 -1.2890089
9.0551929 -0.14239421 -1.290519
9.1557493 -0.15046294 -1.2913888
9.2523499 -0.15043001 -1.2932098
9.3603802 -0.14263093 -1.2956311
9.4483242 -0.14895001 -1.2975751
9.5261431 -0.14825 -1.2987499
4.4842501 -0.039749999 -1.20025
4.5635228 -0.057170451 -1.2010911
4.6530185 -0.051170733 -1.2023902
4.7472167 -0.051722229 -1.2030221
4.8518329 -0.049794447 -1.2045002
4.9514184 -0.050168745 -1.2054625
5.0688982 -0.037332103 -1.2056701
5.1483707 -0.050891936 -1.2062021
5.2487588 -0.051070191 -1.2082052
5.3486166 -0.050707858 -1.2103651
5.4484649 -0.050371457 -1.2125015
5.5492573 -0.051280495 -1.2148031
5.6487293 -0.05078407 -1.2168808
5.7492061 -0.050248139 -1.2190999
5.8484693 -0.051057685 -1.2209344
5.9484921 -0.050763961 -1.2231778
6.0479908 -0.051551748 -1.2263979
6.1473107 -0.050808892 -1.2298059
6.2496047 -0.049401503 -1.2324861
6.3498936 -0.052051723 -1.2348709
6.4509411 -0.051766075 -1.2374119
6.5499973 -0.050372835 -1.2402434
6.6471114 -0.050413709 -1.2422831
6.7480459 -0.051578581 -1.2447833
6.8478236 -0.050407607 -1.2471249
6.9475398 -0.051681031 -1.2498678
7.0474877 -0.049715627 -1.2524097
7.1481462 -0.05162812 -1.2546999
7.2506714 -0.051917806 -1.2568699
7.3479619 -0.049830772 -1.258781
7.447001 -0.048757683 -1.2599961
7.5511174 -0.05203389 -1.2613727
7.6505384 -0.051490914 -1.2623318
7.7500873 -0.051807694 -1.2637641
7.8498449 -0.04722596 -1.2649518
7.9494953 -0.052411102 -1.2660668
8.0518961 -0.051313948 -1.2676338
8.1483955 -0.052487791 -1.2698537
8.2506142 -0.046918917 -1.2726961
8.3510923 -0.053721439 -1.2757498
8.447937 -0.052135721 -1.2783073
8.5518904 -0.050891671 -1.2809335
8.6493902 -0.05141177 -1.2832797
8.7500753 -0.054825 -1.285575
8.849617 -0.051339287 -1.2876607
8.9512424 -0.049966659 -1.2893499
9.0542593 -0.049805548 -1.2911855
9.1489325 -0.049090911 -1.2918864
9.2483959 -0.05340625 -1.2934893
9.3460741 -0.053562503 -1.2955521
9.4525232 -0.049428571 -1.2976904
9.535429 -0.040535714 -1.2994999
4.4835 0.045000002 -1.20025
4.5545664 0.054666672 -1.20155
4.6478066 0.053271428 -1.2021788
4.7483597 0.046328124 -1.2037967
4.8519549 0.053499997 -1.2045001
4.9681692 0.069371842 -1.2049313
5.0495315 0.049455099 -1.2059108
5.1484585 0.048917495 -1.2072001
5.2490745 0.04892873 -1.2091724
5.3486552 0.049123086 -1.2109004
5.4484701 0.048661493 -1.2129663
5.5487199 0.049031045 -1.215091
5.6483369 0.049934834 -1.2172875
5.7487473 0.04927941 -1.2194567
5.8488722 0.049616151 -1.2212827
5.9485965 0.049919564 -1.2235919
6.0497823 0.049692925 -1.2269523
6.1500478 0.048445504 -1.2302501
6.247241 0.049588699 -1.2328693
6.3478379 0.049471017 -1.2354599
6.4506974 0.048932545 -1.2383151
6.5495367 0.050050452 -1.2408007
6.649219 0.048761677 -1.2430398
6.7504287 0.049044739 -1.2455579
6.8488541 0.052169345 -1.2479895
6.9489756 0.051283136 -1.2506686
7.0497775 0.048003208 -1.2531602
7.1474147 0.050646424 -1.2559285
7.2460289 0.049281739 -1.2577897
7.3463988 0.05106923 -1.2597077
7.4463487 0.050590176 -1.2611103
7.5498309 0.048249997 -1.2619916
7.6500144 0.051874999 -1.2631069
7.7496095 0.048984375 -1.2648385
7.8493266 0.050788049 -1.2653806
7.9479265 0.048732959 -1.2663181
8.0501242 0.053732138 -1.2681726
8.1511335 0.050134618 -1.2700258
8.2536497 0.050842851 -1.2727356
8.3532429 0.051066663 -1.2760249
8.4505329 0.048161291 -1.278524
8.5533075 0.049048081 -1.2812309
8.6459379 0.050750006 -1.2837411
8.7453279 0.05165517 -1.2860518
8.8531971 0.047928572 -1.2881697
8.9498177 0.048920456 -1.2893976
9.0452795 0.048567303 -1.2910098
9.151 0.050390009 -1.29265
9.2524891 0.049636364 -1.294125
9.3549681 0.055369563 -1.296152
9.453187 0.054531254 -1.2978282
9.5232706 0.051125001 -1.2994167
4.4807501 0.15055001 -1.2004501
4.5638814 0.15635526 -1.2018684
4.6447349 0.15075757 -1.2029016
4.7508984 0.15135813 -1.2044253
4.8614769 0.16868623 -1.205011
4.9488406 0.14928198 -1.2052207
5.0492749 0.14918092 -1.2063519
5.149394 0.14902312 -1.2076859
5.2488952 0.14904052 -1.2096134
5.3491955 0.14903134 -1.211378
5.4488878 0.14869614 -1.2135882
5.5493131 0.15000586 -1.2158823
5.6497478 0.14973316 -1.21776
5.7502608 0.1490504 -1.2198852
5.8484993 0.14980122 -1.2221506
5.9485703 0.14862958 -1.2243043
6.0483088 0.14930926 -1.2271562
6.1478157 0.14996476 -1.2302231
6.2491851 0.15065648 -1.2339817
6.3491645 0.14945491 -1.2370263
6.4502835 0.15015396 -1.239382
6.5518346 0.14857018 -1.2417434
6.6510696 0.14818026 -1.2432692
6.7498779 0.15107794 -1.2457714
6.8505239 0.15239996 -1.248535
6.9538145 0.14723054 -1.2517791
7.0503945 0.15114792 -1.2545248
7.1510291 0.14793213 -1.256868
7.2504048 0.14817046 -1.2590226
7.3494062 0.150291 -1.2609998
7.4470425 0.15207893 -1.2626182
7.5493803 0.14796758 -1.2633796
7.6485162 0.15088268 -1.2641326
7.7515292 0.15141346 -1.2649713
7.8496547 0.14992778 -1.2663945
7.9484191 0.15101138 -1.2676762
8.0449362 0.15352501 -1.269119
8.1480055 0.15075673 -1.2712367
8.251298 0.14911807 -1.2734513
8.3541336 0.14745833 -1.2761416
8.449954 0.14788279 -1.2789296
8.5517197 0.14821875 -1.2814766
8.6521788 0.14908926 -1.283991
8.7498932 0.15082143 -1.2859465
8.8510675 0.14813462 -1.2882692
8.9451361 0.15048958 -1.2899269
9.0465908 0.14925998 -1.29164
9.1464205 0.14995001 -1.2930999
9.2539682 0.15123957 -1.2943751
9.3490314 0.1544375 -1.2955469
9.4464512 0.14852381 -1.2972977
9.5348425 0.1430625 -1.2995
4.4696784 0.24499999 -1.2007858
4.5615458 0.25536364 -1.2022841
4.6660609 0.27747273 -1.2036699
4.7555208 0.2576631 -1.2049209
4.8488765 0.24895872 -1.2058811
4.9486914 0.24900936 -1.2067289
5.0481744 0.24890003 -1.2075232
5.148304 0.24855486 -1.2087469
5.2486873 0.24924855 -1.2101829
5.3493347 0.24923973 -1.2122254
5.4493284 0.24929224 -1.2142161
5.5485773 0.24936484 -1.2165507
5.6498847 0.24926746 -1.2185411
5.7491078 0.24863559 -1.2207288
5.8497291 0.24865872 -1.2227089
5.9492893 0.25035405 -1.2250571
6.0478721 0.2498911 -1.2274157
6.1469507 0.24939969 -1.2305406
6.2486625 0.25050923 -1.2341366
6.3491397 0.24979647 -1.2375851
6.4507442 0.25111061 -1.2400653
6.5491681 0.2507568 -1.2419233
6.6492691 0.24636231 -1.243834
6.749404 0.24714163 -1.2459193
6.8495369 0.25097096 -1.2491307
6.9503002 0.2520709 -1.2526691
7.0508752 0.24774994 -1.2558368
7.1512976 0.24835868 -1.2579676
7.249156 0.25026169 -1.26016
7.3464108 0.25205603 -1.2625518
7.4503918 0.25035 -1.2640996
7.5492492 0.24804822 -1.2650921
7.65133 0.24852356 -1.2653728
7.74756 0.25446197 -1.2657121
7.8468142 0.24866307 -1.2663748
7.9489064 0.24975581 -1.2677212
8.0489998 0.25162503 -1.269454
8.1470957 0.24636768 -1.2713382
8.2502737 0.24857576 -1.2738788
8.3479128 0.24478127 -1.2759844
8.4468145 0.25595161 -1.2787015
8.5482168 0.24690001 -1.2810166
8.6527061 0.24355173 -1.2840258
8.7571402 0.25058997 -1.2867202
8.8484163 0.25071871 -1.2887604
8.9442854 0.25130683 -1.2906476
9.0472288 0.2490208 -1.292323
9.1410122 0.2454875 -1.2933874
9.2458096 0.24375999 -1.2943201
9.3498869 0.25026247 -1.2955999
9.444849 0.25369999 -1.2972126
9.5291872 0.24214582 -1.2992916
4.4749556 0.37030762 -1.2009552
4.5598173 0.36017033 -1.2018691
4.6490211 0.34887192 -1.2036456
4.748745 0.34847409 -1.2057873
4.8495464 0.34918261 -1.2071985
4.9493227 0.34863609 -1.2079422
5.0499315 0.34875414 -1.2087235
5.1494288 0.34860891 -1.2096225
5.2490993 0.34856021 -1.2107264
5.3491907 0.34941438 -1.212642
5.4490643 0.3495844 -1.2148633
5.5487814 0.34909123 -1.2170984
5.6478949 0.34935722 -1.2189498
5.748692 0.34929797 -1.2210751
5.8486433 0.34826738 -1.223403
5.948585 0.35130587 -1.2252069
6.0485339 0.34929362 -1.2276902
6.1474104 0.34813628 -1.2308463
6.2467828 0.35046819 -1.2340599
6.3489637 0.3498475 -1.2379384
6.4493589 0.35148412 -1.2407387
6.5491385 0.35030884 -1.2427002
6.6485977 0.34728533 -1.2445052
6.7470632 0.34942558 -1.2467391
6.8493271 0.35312334 -1.2501633
6.9527411 0.34820208 -1.2539932
7.0507007 0.34960717 -1.2570963
7.1509342 0.34932417 -1.2596093
7.2490716 0.35353819 -1.2620593
7.34938 0.35096875 -1.2640578
7.4486079 0.34898415 -1.265262
7.5530376 0.34898075 -1.2655818
7.6500759 0.34694001 -1.2661048
7.747179 0.35353261 -1.266663
7.8427029 0.34758937 -1.2670356
7.9453273 0.35130003 -1.2685225
8.048007 0.3523092 -1.2699144
8.150444 0.34768748 -1.2720312
8.2512083 0.34835419 -1.2738055
8.3526888 0.34734091 -1.2758712
8.452467 0.35219172 -1.2784835
8.5557165 0.348625 -1.2817668
8.6523514 0.34545001 -1.28443
8.7478971 0.3486293 -1.2868534
8.8490295 0.35190001 -1.2889
8.9499454 0.35046735 -1.2910979
9.0475378 0.3496154 -1.2928748
9.1508512 0.34717003 -1.29453
9.2450008 0.34672725 -1.2952954
9.346467 0.34057951 -1.2962271
9.4468746 0.35453752 -1.2976127
9.5287046 0.34659091 -1.2989999
4.4715595 0.45377648 -1.2008988
4.5514789 0.44977146 -1.2021422
4.6492414 0.44854587 -1.2045028
4.7493873 0.44904962 -1.2066338
4.8492274 0.44942179 -1.2081542
4.9496226 0.448791 -1.2089794
5.0499635 0.44845232 -1.2096956
5.1491828 0.44892207 -1.2102669
5.249651 0.44936422 -1.2114675
5.3489132 0.44922125 -1.2133771
5.4477897 0.44912255 -1.2152426
5.5483909 0.44898546 -1.2174066
5.6497607 0.4493674 -1.2192458
5.7502723 0.4490813 -1.2213207
5.8503671 0.45034748 -1.2237953
5.9507728 0.44865698 -1.2256494
6.0496182 0.44999307 -1.2281337
6.1488128 0.44997352 -1.2313344
6.2493577 0.44986367 -1.2342294
6.3480821 0.4490796 -1.2376769
6.4498587 0.44953424 -1.2407769
6.5500841 0.45010087 -1.2428799
6.6526785 0.44762644 -1.2453735
6.7495737 0.45009866 -1.2479013
6.8493104 0.44916677 -1.2506505
6.9495821 0.44936988 -1.2543458
7.0492425 0.45055801 -1.2577826
7.146946 0.44939998 -1.2603154
7.2500696 0.45004845 -1.2632781
7.3512282 0.44998702 -1.2648149
7.4467826 0.45045829 -1.2655556
7.5476222 0.44908959 -1.2663631
7.6475487 0.44957361 -1.266789
7.7505779 0.44807777 -1.2675167
7.8474045 0.44760218 -1.2677557
7.9485168 0.44939539 -1.2686164
8.0463018 0.44867957 -1.2700706
8.1497564 0.45055121 -1.2717179
8.2502842 0.45229998 -1.273543
8.3509216 0.45003906 -1.2756563
8.4492502 0.4521417 -1.2778918
8.5509291 0.44737995 -1.2811601
8.6503801 0.44825 -1.2843519
8.7484922 0.45305356 -1.2873214
8.8520546 0.44976088 -1.290098
8.9473686 0.45085868 -1.2921737
9.0543861 0.44979167 -1.2944063
9.1551018 0.45072725 -1.2958977
9.2563267 0.44516248 -1.2967875
9.3490353 0.44479766 -1.2970833
9.4365883 0.44779411 -1.2976913
9.5210743 0.43797499 -1.2992499
4.3962498 0.51749998 -1.20075
4.4735193 0.55062252 -1.2009313
4.5516052 0.54894948 -1.2026124
4.6486163 0.54860198 -1.205382
4.7487226 0.54896444 -1.207375
4.8495622 0.54915679 -1.2088699
4.9499669 0.54890335 -1.2100303
5.0484028 0.54848808 -1.210838
5.1485457 0.54896319 -1.2112525
5.248795 0.54994583 -1.2120023
5.3494968 0.54808587 -1.2138464
5.4488087 0.54913902 -1.2158331
5.5499821 0.54878706 -1.2179441
5.6484971 0.54889005 -1.2196932
5.748642 0.54943889 -1.2220316
5.8503537 0.54948545 -1.22462
5.9497681 0.54944086 -1.2263373
6.0485082 0.54912406 -1.2286993
6.1501732 0.55029261 -1.2320062
6.246645 0.54833835 -1.2347562
6.3475189 0.54947776 -1.2379886
6.4489217 0.54994476 -1.2408581
6.5515461 0.55124986 -1.2439257
6.6481462 0.54807395 -1.2459489
6.7482352 0.54686761 -1.2484821
6.8488245 0.54796803 -1.2510417
6.9520874 0.55130315 -1.2543672
7.0475721 0.54921919 -1.2573692
7.1475849 0.55117184 -1.2603906
7.2503047 0.55001175 -1.263301
7.3503108 0.5505746 -1.2650263
7.4483132 0.55137962 -1.2661852
7.5479956 0.55086005 -1.2667711
7.6520252 0.55059379 -1.2672241
7.7507033 0.54604679 -1.267568
7.8500576 0.55007958 -1.2683409
7.9523578 0.54510808 -1.2690945
8.0516348 0.54989636 -1.2701283
8.1530161 0.55343968 -1.2718018
8.2466125 0.54839516 -1.2737744
8.3474684 0.55328906 -1.2753359
8.4456062 0.54663461 -1.2779711
8.5454779 0.55134088 -1.281
8.6484461 0.55911958 -1.284739
8.7516384 0.54934007 -1.28817
8.8522606 0.54873961 -1.2907083
8.9586554 0.55198956 -1.2938854
9.0571203 0.55273902 -1.2959021
9.1533747 0.55012494 -1.2971375
9.2541847 0.5495978 -1.2978154
9.3500948 0.54588085 -1.2982264
9.4634533 0.54220319 -1.2989844
9.52775 0.53850001 -1.2999166
4.3804998 0.63287497 -1.2005
4.4699554 0.65262353 -1.2011979
4.5505204 0.64863902 -1.20272
4.6502271 0.64880371 -1.2057256
4.7499003 0.64807642 -1.20798
4.8492846 0.64848983 -1.2097791
4.949091 0.6491999 -1.2109038
5.0487771 0.64868945 -1.2116137
5.1480041 0.64900261 -1.212286
5.2496572 0.64903241 -1.2126155
5.3486414 0.64817154 -1.2141142
5.4492493 0.64876461 -1.2161847
5.5483494 0.64889419 -1.2182447
5.649127 0.64917767 -1.220342
5.7511563 0.64962769 -1.2231693
5.8493757 0.65031391 -1.2255077
5.9474425 0.64973849 -1.22726
6.0485616 0.65032393 -1.2300361
6.1491275 0.64936423 -1.2328681
6.2487245 0.64926332 -1.2355583
6.3507948 0.64930016 -1.2386547
6.4489269 0.64815104 -1.2410523
6.5492229 0.64929056 -1.2440203
6.6483588 0.64938045 -1.2467502
6.7503543 0.64953095 -1.2488612
6.8522964 0.64933562 -1.2512974
6.9520984 0.64917278 -1.2542833
7.0481086 0.64881152 -1.2572591
7.1464367 0.65108204 -1.2602153
7.2491088 0.65018982 -1.2627629
7.3544612 0.65264654 -1.2649221
7.4534254 0.6499216 -1.2662206
7.5510774 0.65095836 -1.2667395
7.6493301 0.64611173 -1.2671863
7.7468481 0.65110314 -1.2677771
7.8510704 0.65176195 -1.2688632
7.9486895 0.64454865 -1.2697318
8.0480738 0.65116924 -1.2710001
8.1509352 0.64492142 -1.2722429
8.2491074 0.6487571 -1.2742858
8.3478365 0.65253448 -1.2762672
8.4444466 0.64398205 -1.2786338
8.5489559 0.65715212 -1.2820109
8.6472702 0.64897001 -1.2850801
8.7528257 0.64209783 -1.2886305
8.8519278 0.64667863 -1.291119
8.9484282 0.65200001 -1.2944479
9.0541544 0.64929169 -1.296104
9.1527386 0.64961898 -1.2981071
9.2464066 0.64476317 -1.2984871
9.34764 0.64214063 -1.299328
9.4394541 0.62965912 -1.2998182
4.376853 0.76969117 -1.2009413
4.4640942 0.75195515 -1.2014501
4.5496702 0.74867368 -1.2033548
4.6494861 0.74869668 -1.206679
4.7491007 0.74826974 -1.2090847
4.8494163 0.74904352 -1.2110032
4.9498892 0.74928921 -1.2122281
5.0487595 0.74868721 -1.2129548
5.1487489 0.74959403 -1.2132953
5.2482758 0.74906337 -1.2133902
5.348743 0.74841684 -1.2146162
5.4494991 0.74902767 -1.2166526
5.5501604 0.74968928 -1.2186519
5.6495385 0.75030106 -1.221077
5.7494917 0.7499429 -1.2236942
5.8492756 0.75088716 -1.2267623
5.9494667 0.74974972 -1.2285789
6.0494795 0.75012392 -1.230652
6.1497526 0.74905401 -1.2332028
6.2504015 0.74953848 -1.2363046
6.3490615 0.7485196 -1.2388961
6.4480128 0.74823409 -1.2417766
6.5481758 0.75046796 -1.2447877
6.6487589 0.748658 -1.2475836
6.7508197 0.74898976 -1.2499654
6.8483186 0.75170821 -1.2519031
6.9495821 0.74794132 -1.2541565
7.0497279 0.75090879 -1.2573174
7.1506987 0.75239235 -1.2600387
7.2503977 0.74920255 -1.2620645
7.3486423 0.7489087 -1.2643797
7.4512701 0.75111502 -1.2661952
7.5509181 0.75077039 -1.2673931
7.6485887 0.74844271 -1.267573
7.74965 0.75035715 -1.268387
7.8492508 0.75086248 -1.2694438
7.9499993 0.74901325 -1.2708092
8.0445833 0.75003022 -1.2722576
8.1451712 0.74875665 -1.2732961
8.2514277 0.752258 -1.2752017
8.3515511 0.74939656 -1.2772156
8.449749 0.7468276 -1.2789569
8.5458336 0.75195378 -1.2817223
8.653471 0.74783647 -1.2851446
8.7467966 0.74456733 -1.2883847
8.8466482 0.74961358 -1.2914431
8.9459248 0.75192499 -1.2941
9.0402031 0.74802268 -1.2966363
9.1449871 0.74763745 -1.2984999
9.2396841 0.73628336 -1.2994666
9.3495836 0.72466666 -1.2999166
4.3749475 0.84472364 -1.2009079
4.4577823 0.85036045 -1.2017287
4.5507612 0.84911382 -1.2048085
4.6508346 0.84849262 -1.2076114
4.7507544 0.84882504 -1.2102517
4.8490028 0.84774077 -1.2120773
4.9492817 0.84905481 -1.2133627
5.0485706 0.84828985 -1.2143203
5.1478457 0.85007501 -1.2144074
5.2487373 0.84988534 -1.2143545
5.3479872 0.84827775 -1.2151941
5.4488316 0.8484962 -1.2169333
5.5491743 0.84938055 -1.2191772
5.6492157 0.84867287 -1.2216322
5.7485571 0.84991163 -1.2243026
5.8512526 0.84947604 -1.2269421
5.9513278 0.84768647 -1.2290738
6.0482993 0.85047412 -1.231213
6.1481962 0.85045505 -1.2336259
6.2494373 0.84995902 -1.2365937
6.3490047 0.84972119 -1.2392159
6.4488344 0.84981537 -1.2425994
6.5496931 0.84950322 -1.2457656
6.6490159 0.85015064 -1.2483301
6.7490463 0.84943736 -1.2508438
6.8497143 0.84809983 -1.2530462
6.9487667 0.84759015 -1.2549632
7.0477724 0.85037941 -1.2579913
7.1489587 0.85114914 -1.2600282
7.2484231 0.85026366 -1.2618908
7.3491859 0.85031873 -1.2644554
7.449903 0.85155618 -1.2664082
7.5489902 0.84692711 -1.2674116
7.6503625 0.85186225 -1.2680409
7.7498236 0.84691471 -1.2686769
7.8496103 0.84767306 -1.2700704
7.9480605 0.84658778 -1.2714055
8.0454788 0.85053676 -1.2732353
8.1442413 0.85002136 -1.2744642
8.2466879 0.85206246 -1.2762153
8.3514624 0.85037041 -1.2777687
8.4502983 0.84899998 -1.2793171
8.545722 0.85265744 -1.281824
8.6477709 0.84795195 -1.2851537
8.7538471 0.85293478 -1.288913
8.8467388 0.84671593 -1.2915229
8.9493303 0.85104537 -1.2948296
9.0503979 0.85055697 -1.2972045
9.1462488 0.84509617 -1.2991346
9.2263756 0.81168753 -1.2999375
4.3765306 0.95445007 -1.2010101
4.4538021 0.94994938 -1.2022558
4.5486674 0.94857264 -1.2052181
4.6491175 0.94873494 -1.2082916
4.7483091 0.949471 -1.2108951
4.8499594 0.94865072 -1.2128121
4.9503441 0.94929338 -1.2142977
5.050734 0.94893128 -1.2152789
5.1489019 0.95003641 -1.2154377
5.2484317 0.94879216 -1.2154435
5.3483071 0.9498511 -1.2161149
5.4475999 0.94826269 -1.2174084
5.5494385 0.94926226 -1.2199146
5.6484661 0.94821274 -1.2224007
5.7486 0.95094687 -1.2247744
5.8495941 0.9491179 -1.2272301
5.9495044 0.94929975 -1.2293473
6.049511 0.94741738 -1.2317563
6.146811 0.95109534 -1.2340661
6.2475491 0.94979161 -1.2370495
6.3476005 0.94946694 -1.2400112
6.4500022 0.94926172 -1.2432146
6.5521879 0.94829667 -1.2461812
6.6479664 0.95168012 -1.2492166
6.7497134 0.950638 -1.2521645
6.8523388 0.94882494 -1.2548717
6.9508004 0.95036441 -1.25714
7.0509567 0.9489575 -1.2592075
7.1501637 0.9480865 -1.2606632
7.2492309 0.95154899 -1.2629608
7.3500695 0.94986504 -1.2648449
7.4484425 0.94980741 -1.2666197
7.5511055 0.94974488 -1.2675885
7.6485252 0.95249397 -1.2682863
7.7489648 0.94958925 -1.2690712
7.8467689 0.95208538 -1.2700609
7.9509792 0.94841671 -1.2717502
8.0486689 0.95197058 -1.2735661
8.1545467 0.94650775 -1.2753046
8.2538786 0.95079315 -1.2771294
8.3466864 0.94914067 -1.2782265
8.4468279 0.95267242 -1.2797931
8.5529013 0.95438045 -1.2826196
8.653471 0.94874042 -1.2857019
8.7513208 0.95215482 -1.289
8.8504677 0.95416296 -1.2916195
8.9440527 0.94984215 -1.294329
9.0477276 0.95002168 -1.2970433
9.1380358 0.95419639 -1.2991072
4.2852502 1.0508333 -1.2005833
4.3778753 1.0559138 -1.2010905
4.4516912 1.0495164 -1.2023202
4.5497031 1.0492432 -1.2055683
4.6497083 1.0477134 -1.2086405
4.7502332 1.0500809 -1.2115932
4.8491182 1.0494598 -1.2131597
4.9501119 1.0493581 -1.2147379
5.0499811 1.0496184 -1.2159485
5.1484418 1.0486767 -1.2164056
5.248765 1.048942 -1.2166923
5.3485727 1.0481178 -1.2169243
5.4499474 1.0486828 -1.2181165
5.5493689 1.048146 -1.220209
5.6491489 1.0483636 -1.222695
5.7515707 1.0479923 -1.2251869
5.8493819 1.0499514 -1.2272198
5.948678 1.0499911 -1.2295066
6.0488472 1.0487045 -1.2318522
6.1512117 1.0498554 -1.2343823
6.2504606 1.0502223 -1.2374976
6.3508172 1.0489942 -1.2403606
6.4478607 1.0483276 -1.2438247
6.5478988 1.0495955 -1.2469014
6.6495614 1.0534831 -1.2497334
6.7503819 1.0474138 -1.2530041
6.8501415 1.049528 -1.2562178
6.9504151 1.0475274 -1.2588817
7.0495219 1.0492364 -1.2610726
7.1489053 1.0482317 -1.2624818
7.2499623 1.0473616 -1.2644786
7.3475633 1.0501385 -1.2663726
7.4500294 1.0510576 -1.2672882
7.5507507 1.0505908 -1.2678809
7.6509147 1.0482193 -1.2687562
7.7525954 1.0467142 -1.2692678
7.8515072 1.0567952 -1.2700608
7.9482002 1.0448145 -1.2711499
8.0514946 1.0521573 -1.2736429
8.1524591 1.048111 -1.2756877
8.2469807 1.0501701 -1.2774601
8.3472862 1.0500649 -1.2788702
8.4514637 1.0409999 -1.2806853
8.5539274 1.0520831 -1.2829167
8.6419621 1.0505625 -1.286
8.7452507 1.0489445 -1.2890093
8.8496494 1.0533625 -1.2920874
8.9467974 1.0507025 -1.2947619
9.0552254 1.0504501 -1.297525
9.1320572 1.0502499 -1.2989999
4.2543745 1.1610625 -1.200875
4.3641796 1.1521673 -1.2009952
4.4509215 1.1491098 -1.2025644
4.5491652 1.1492647 -1.2053423
4.6489677 1.147938 -1.2085073
4.7500587 1.1496577 -1.2115091
4.8484879 1.1500125 -1.2137486
4.9482718 1.1491016 -1.2151392
5.0507426 1.1492996 -1.2165865
5.148994 1.1486299 -1.2171159
5.2494345 1.1501135 -1.2175659
5.3494825 1.1488357 -1.2180389
5.4475145 1.1492144 -1.2188336
5.5483265 1.1491948 -1.2209432
5.6514797 1.1483853 -1.2233667
5.7507639 1.1491574 -1.2258638
5.8491549 1.1497724 -1.2274799
5.9490385 1.1497867 -1.2292641
6.0497513 1.1489297 -1.2315216
6.150176 1.1504815 -1.2343171
6.2488346 1.1484671 -1.237741
6.3460016 1.1517947 -1.2408483
6.4489083 1.1488386 -1.2440442
6.5533681 1.1487702 -1.2475207
6.6495419 1.1527033 -1.2505045
6.7486506 1.1496078 -1.253777
6.8506684 1.148367 -1.2573991
6.950213 1.1498711 -1.2598144
7.0528598 1.1477543 -1.261842
7.1493163 1.1501786 -1.2636631
7.2512054 1.1491101 -1.2659601
7.3469338 1.1509948 -1.2674347
7.446743 1.1479583 -1.2682142
7.5469298 1.1488532 -1.2685598
7.653028 1.1500444 -1.2691056
7.7514796 1.1473514 -1.270061
7.8476119 1.1480331 -1.2705526
7.9453444 1.1473243 -1.2713581
8.048954 1.1534815 -1.2734631
8.1478348 1.1519052 -1.2763103
8.2563267 1.1482422 -1.2782198
8.3524446 1.1466303 -1.2796412
8.4508715 1.145776 -1.2819655
8.5512075 1.1534375 -1.2848438
8.6485119 1.153024 -1.2872381
8.74613 1.1526738 -1.2901847
8.849966 1.1529772 -1.2926818
8.953887 1.1492159 -1.2958523
9.0524111 1.1417648 -1.2981176
9.1288929 1.1524643 -1.29975
4.2739286 1.2352501 -1.2010001
4.3660245 1.251164 -1.2010784
4.451334 1.2485584 -1.202417
4.5496788 1.248945 -1.2050977
4.650547 1.2503098 -1.208544
4.7501817 1.2493639 -1.2112591
4.8495879 1.2488354 -1.2137625
4.9483104 1.250111 -1.2153071
5.0489025 1.2480819 -1.2170044
5.1490173 1.2491735 -1.2179497
5.2492137 1.250304 -1.2183748
5.3490663 1.2477481 -1.2189463
5.449491 1.2479515 -1.21978
5.5494919 1.2484665 -1.2215196
5.6492701 1.2477132 -1.223774
5.7482085 1.2499434 -1.2257879
5.8487096 1.2502185 -1.2276115
5.9489264 1.2501893 -1.229058
6.0484481 1.2499073 -1.2315814
6.1491575 1.2490844 -1.2344326
6.2488523 1.2510062 -1.237227
6.3515806 1.2463307 -1.2407464
6.4492245 1.2498749 -1.2439109
6.5482802 1.2485384 -1.2475886
6.6483951 1.2487177 -1.2509356
6.7480979 1.2490327 -1.254328
6.851213 1.2517666 -1.2580127
6.9485893 1.2480998 -1.260505
7.0441008 1.248404 -1.2626585
7.1475282 1.2482826 -1.2646437
7.2515154 1.2503551 -1.2669047
7.3533874 1.2474431 -1.2683467
7.4489226 1.251125 -1.2691199
7.5494571 1.2474571 -1.2692866
7.6496072 1.251456 -1.2699376
7.7464314 1.2506459 -1.2711111
7.8451715 1.2500715 -1.2718785
7.9488854 1.24525 -1.27265
8.0512075 1.2448667 -1.2746001
8.1499996 1.2478392 -1.2765181
8.2518721 1.2491817 -1.2787501
8.353529 1.2469164 -1.2808892
8.4548588 1.2520435 -1.2835435
8.549839 1.2496699 -1.2855201
8.65065 1.2493374 -1.2882502
8.7460957 1.2507261 -1.2908928
8.8531456 1.2540789 -1.2940791
8.9516582 1.2415789 -1.2964736
9.0506496 1.2587501 -1.2988
9.1097078 1.2476667 -1.2996249
4.2693748 1.3433958 -1.2010626
4.3606114 1.3518299 -1.2010868
4.4492097 1.3486918 -1.2023815
4.5491476 1.3490121 -1.2050405
4.6492147 1.3499414 -1.2084271
4.7496428 1.3498656 -1.2112675
4.8505673 1.3483893 -1.2138164
4.9500599 1.3493481 -1.2156371
5.0492096 1.3471023 -1.217505
5.1490221 1.34922 -1.2189112
5.2486377 1.3490754 -1.2198533
5.3490219 1.3470395 -1.2206893
5.4486547 1.3495257 -1.221123
5.5498905 1.3473945 -1.222368
5.6496062 1.3485215 -1.2238342
5.747664 1.3480941 -1.225755
5.8506923 1.3494684 -1.2277865
5.9505196 1.3514943 -1.2295302
6.0494947 1.3498242 -1.2315055
6.1503477 1.3481959 -1.2341053
6.2487063 1.3488015 -1.2373416
6.348372 1.3475875 -1.2407094
6.4475975 1.3502647 -1.2444962
6.5484433 1.3482991 -1.247981
6.6504931 1.348402 -1.2515941
6.7533917 1.3499094 -1.254806
6.8504739 1.3518265 -1.2584081
6.9471631 1.3513638 -1.2613546
7.051106 1.3509617 -1.2637933
7.1524658 1.3499839 -1.2657608
7.2457047 1.3502998 -1.2675946
7.3465385 1.3498317 -1.2688694
7.4498715 1.3474357 -1.2700704
7.5488253 1.3480407 -1.270558
7.6501284 1.3460215 -1.2708642
7.7447848 1.348007 -1.2717215
7.8483987 1.3502769 -1.2728851
7.948699 1.3512574 -1.2735809
8.0478754 1.3442252 -1.2752666
8.14958 1.3487947 -1.2771162
8.2552586 1.3495774 -1.2791981
8.3528833 1.3518655 -1.2810192
8.4510517 1.349388 -1.2829744
8.5500336 1.3490326 -1.2854457
8.6561985 1.3458124 -1.2887396
8.7467833 1.3491478 -1.291182
8.8482494 1.3460393 -1.2943158
8.943737 1.3484607 -1.2968947
9.0379009 1.34785 -1.298925
4.2775002 1.45495 -1.200925
4.3647671 1.4473342 -1.2012713
4.4502373 1.4488055 -1.2027866
4.5497184 1.4484497 -1.2053627
4.6491561 1.4483951 -1.2085078
4.7489562 1.4489626 -1.2116567
4.8504672 1.4486932 -1.2140681
4.9498758 1.4488968 -1.2161738
5.0508409 1.4492737 -1.2182958
5.1510801 1.4493378 -1.2199062
5.2499661 1.4485465 -1.221626
5.3501773 1.447521 -1.2224777
5.4483705 1.4493206 -1.2228762
5.550097 1.4499689 -1.2235203
5.6505003 1.448215 -1.2246494
5.7506948 1.4472475 -1.2260623
5.8493533 1.4509946 -1.2283906
5.948987 1.4488558 -1.2304752
6.0494046 1.4477993 -1.2321942
6.1510921 1.449298 -1.2348461
6.2505255 1.4483082 -1.2378188
6.3490376 1.4465116 -1.2410384
6.4494967 1.4504279 -1.2446669
6.5521765 1.4488771 -1.2485346
6.6534567 1.448649 -1.2520658
6.7513547 1.4519053 -1.2549198
6.8516822 1.4491057 -1.2589132
6.952075 1.4518551 -1.2620198
7.0479431 1.4500469 -1.2646041
7.1484356 1.450201 -1.2668481
7.2521896 1.4498292 -1.2685792
7.3471045 1.4509451 -1.2700123
7.447793 1.4456166 -1.2713721
7.5510054 1.4507375 -1.2720939
7.6446042 1.4417084 -1.2721874
7.7474313 1.4515902 -1.2731181
7.8455997 1.4498751 -1.2736584
7.9487319 1.4514252 -1.274533
8.0469046 1.4464827 -1.2756464
8.1481113 1.4444075 -1.2777963
8.2455654 1.4504458 -1.2794237
8.3456669 1.4563056 -1.2812592
8.4452505 1.4508173 -1.2828268
8.5527267 1.4459021 -1.2848262
8.6518526 1.4457499 -1.2877955
8.748868 1.4532238 -1.2906051
8.8531904 1.4484999 -1.2941309
8.9514551 1.4513235 -1.2970588
9.0380526 1.4437501 -1.2992142
4.2838125 1.55875 -1.2007501
4.3638883 1.5491225 -1.2012392
4.449481 1.5502321 -1.2028877
4.5498562 1.5467803 -1.2056071
4.6503487 1.5478175 -1.2090123
4.7487173 1.5502502 -1.2122147
4.8496647 1.5484146 -1.2148026
4.9484038 1.5489355 -1.2174187
5.0492043 1.5486571 -1.2193429
5.1492929 1.5490931 -1.2213551
5.2502785 1.5485616 -1.2231151
5.3494654 1.5499314 -1.2241081
5.4485722 1.5491486 -1.2247162
5.5496221 1.5499953 -1.2248011
5.649261 1.5490409 -1.2258651
5.7476845 1.5467231 -1.2273399
5.8497229 1.5495831 -1.2292303
5.9510207 1.5497763 -1.2317235
6.049365 1.5486507 -1.2338141
6.1481047 1.5497209 -1.236058
6.2480173 1.5489962 -1.238845
6.349021 1.5470319 -1.2419393
6.4493632 1.5489875 -1.2451041
6.5490537 1.5515043 -1.2485225
6.6470189 1.5485879 -1.252
6.7466683 1.5507214 -1.2551925
6.8489513 1.5501924 -1.2591733
6.9501343 1.5515273 -1.262212
7.0475726 1.5500671 -1.2650244
7.1474385 1.549289 -1.2674558
7.2492499 1.5510439 -1.2695692
7.3465815 1.550189 -1.2711488
7.4474807 1.5521793 -1.2726858
7.5494242 1.5496894 -1.2735077
7.6473823 1.5466181 -1.2739861
7.7492642 1.5510998 -1.2744001
7.8474188 1.5488788 -1.2748225
7.9481525 1.5472177 -1.275411
8.0499325 1.5502414 -1.2761036
8.1459723 1.5461016 -1.2775742
8.2523298 1.5514798 -1.2795199
8.3524284 1.54875 -1.281381
8.4466944 1.54575 -1.2825453
8.5461998 1.5478375 -1.284825
8.6464348 1.552763 -1.2874607
8.755353 1.554603 -1.2907207
8.8443661 1.5524669 -1.29405
8.9428835 1.5569501 -1.2969834
9.0166664 1.5481111 -1.2991389
4.2746248 1.6351249 -1.200875
4.3647428 1.6504204 -1.2013026
4.4498429 1.6486595 -1.2036544
4.549963 1.6488986 -1.206582
4.6486082 1.6484598 -1.209648
4.7515907 1.6488882 -1.2134519
4.8491039 1.6492705 -1.2165639
4.9482107 1.6499172 -1.2194346
5.0484152 1.6508337 -1.2217518
5.1492877 1.6483847 -1.2234206
5.2487535 1.6479222 -1.2247474
5.3489432 1.6486301 -1.2254267
5.449348 1.6481336 -1.2261834
5.5488458 1.6506162 -1.2263687
5.6496825 1.6504976 -1.2271104
5.7505856 1.6501174 -1.2286023
5.8502159 1.6513282 -1.2304158
5.9503465 1.6476868 -1.2332733
6.0502329 1.6485633 -1.2355175
6.148325 1.6517882 -1.2380278
6.2482114 1.6475548 -1.2400702
6.3502116 1.6483598 -1.2426524
6.4515481 1.6487628 -1.245983
6.5495934 1.6510932 -1.2490832
6.6514878 1.6500816 -1.2523621
6.7510376 1.649585 -1.2556649
6.8487062 1.6499891 -1.259451
6.9480062 1.6462858 -1.2627321
7.0479875 1.6464406 -1.2656549
7.1490393 1.6513444 -1.2680888
7.2516246 1.6484407 -1.2699277
7.3505998 1.646 -1.2719014
7.4546013 1.6475607 -1.2734189
7.5501552 1.6463906 -1.2746407
7.6494503 1.6510764 -1.2752223
7.7526441 1.6512274 -1.2757121
7.8559732 1.6449258 -1.2760741
7.9508214 1.6497053 -1.2763302
8.0478354 1.6500767 -1.2767789
8.1530828 1.6517602 -1.2777188
8.2510958 1.6470715 -1.2794286
8.358489 1.6509674 -1.2816956
8.4572496 1.6458452 -1.2835596
8.5498123 1.6555312 -1.2850468
8.6500521 1.6467189 -1.2877916
8.7514296 1.6534861 -1.2906805
8.8552504 1.6437336 -1.2944665
8.9433222 1.6430534 -1.2973394
9.0205355 1.6437501 -1.2995356
4.2684169 1.7157501 -1.2005
4.3615179 1.7493736 -1.2013625
4.4495435 1.7479125 -1.2042899
4.5507393 1.7485142 -1.2077296
4.6493716 1.7496508 -1.2110624
4.747005 1.7493283 -1.2147415
4.8511043 1.7492825 -1.2183697
4.9503145 1.7498789 -1.2211205
5.0494628 1.7503347 -1.2234035
5.1491981 1.7494268 -1.2247641
5.2490478 1.7488883 -1.2260695
5.349194 1.7469896 -1.2267145
5.4501753 1.748594 -1.2274488
5.5505919 1.7508199 -1.2279476
5.6490884 1.7499309 -1.2284635
5.746326 1.748777 -1.2299514
5.8503695 1.7495744 -1.2315401
5.9499121 1.7491964 -1.233711
6.0503831 1.7473767 -1.2362676
6.1525073 1.7509643 -1.238647
6.2507076 1.7482343 -1.2412931
6.3505383 1.7477585 -1.2435306
6.4498911 1.7494227 -1.2464319
6.5479445 1.7482649 -1.2493203
6.6466427 1.7505919 -1.2526836
6.7475753 1.7489456 -1.2560053
6.8487911 1.7519228 -1.2600238
6.950305 1.7470334 -1.2635944
7.0482159 1.752157 -1.2662095
7.1502323 1.7544452 -1.268329
7.2501311 1.7475185 -1.2702252
7.350244 1.7485986 -1.2721975
7.449079 1.7490426 -1.2739644
7.548667 1.7487652 -1.2752045
7.6489463 1.7433306 -1.2761966
7.7505269 1.7542329 -1.2769485
7.848556 1.7465189 -1.2771852
7.9436665 1.7513441 -1.2775939
8.0495892 1.7495897 -1.2781498
8.1479511 1.7512141 -1.2789165
8.2499714 1.7526633 -1.2800386
8.3556585 1.7443947 -1.2818816
8.4524546 1.7522613 -1.2837842
8.5562639 1.7480001 -1.2854736
8.6489706 1.7591324 -1.2876618
8.7457495 1.7485131 -1.2907368
8.8503399 1.7434645 -1.2942858
8.9417505 1.7500499 -1.2977834
9.0079165 1.7285 -1.2995
4.2752752 1.8578498 -1.201
4.3539 1.8518457 -1.2018481
4.4486389 1.8490738 -1.2051436
4.5479841 1.8493364 -1.2085493
4.6488104 1.8499719 -1.2122105
4.7502718 1.8491743 -1.2159817
4.8491855 1.8484955 -1.2194883
4.9502864 1.8480617 -1.2220141
5.0484014 1.8525782 -1.2240937
5.1472974 1.8474087 -1.2262579
5.248179 1.8497812 -1.2273413
5.3477979 1.8478141 -1.2282192
5.4483671 1.8490077 -1.2284377
5.5507812 1.8499966 -1.2289418
5.6521034 1.8492502 -1.2295312
5.7505322 1.8491538 -1.2308146
5.8463902 1.8514798 -1.2323868
5.9497428 1.8506045 -1.2345259
6.0497689 1.8490378 -1.2366177
6.1499825 1.850895 -1.2390085
6.2470579 1.8490704 -1.2417125
6.3495488 1.8475268 -1.2440491
6.4484191 1.8488492 -1.2463865
6.5492001 1.8491676 -1.2494956
6.6510954 1.8500296 -1.2530059
6.7475061 1.8498669 -1.2565335
6.8465376 1.8493001 -1.2605687
6.9470897 1.8486487 -1.2642915
7.0517082 1.8541737 -1.2669585
7.1481442 1.8487875 -1.268591
7.2537427 1.8437639 -1.2708751
7.3531251 1.8495802 -1.2724912
7.4491892 1.8464242 -1.2743335
7.5533347 1.8544655 -1.2763363
7.6481962 1.8498125 -1.2776339
7.7482333 1.8507501 -1.2786378
7.8498998 1.8515799 -1.27907
7.9511342 1.8469326 -1.2791251
8.046196 1.8513261 -1.2796413
8.1438208 1.8501192 -1.2800121
8.2485342 1.8533069 -1.280841
8.3471146 1.8497812 -1.2821456
8.4495621 1.855 -1.2839221
8.5534534 1.8477976 -1.2857261
8.6501474 1.8525146 -1.2878089
8.7524996 1.8486875 -1.291078
8.8575497 1.8458334 -1.2949166
8.9451532 1.846096 -1.2981346
4.2810502 1.9543144 -1.2011788
4.3509178 1.948617 -1.2031776
4.4482379 1.9489017 -1.2060001
4.547833 1.9491872 -1.2092745
4.6478767 1.9497212 -1.2129906
4.7496991 1.9476699 -1.2169003
4.8516402 1.9473714 -1.2203172
4.9500384 1.9498476 -1.2227477
5.0496273 1.9485474 -1.2245218
5.1497164 1.9496862 -1.2266222
5.247941 1.9497869 -1.2282377
5.3463473 1.9477205 -1.2289522
5.4483514 1.9490119 -1.2288254
5.5494995 1.9503858 -1.2292498
5.6502309 1.9511261 -1.2296426
5.7496896 1.9465343 -1.2309844
5.8486929 1.9506938 -1.2327162
5.9507065 1.947652 -1.2347578
6.0481682 1.950682 -1.2370807
6.1497197 1.9471289 -1.2391833
6.2508168 1.9488753 -1.2413127
6.3502045 1.9480323 -1.2437733
6.4488049 1.9510846 -1.2462702
6.5465007 1.9492828 -1.249076
6.6461415 1.9478312 -1.2525815
6.7502503 1.9482558 -1.2566125
6.8507438 1.9481989 -1.2610128
6.9495792 1.9478719 -1.2644085
7.0484848 1.947826 -1.2669318
7.1527014 1.9480209 -1.2692225
7.2510157 1.9463255 -1.2713712
7.3494143 1.9468125 -1.2737814
7.4492311 1.9453889 -1.2754537
7.5515375 1.9522222 -1.2777038
7.6501827 1.9497844 -1.2796931
7.7488599 1.9478401 -1.2806304
7.8503356 1.9488881 -1.2809054
7.953773 1.9494643 -1.2815356
8.0556412 1.9499784 -1.2818477
8.1591902 1.9523809 -1.2821189
8.2569313 1.9529771 -1.2827159
8.3519173 1.9460555 -1.2832223
8.4533892 1.9545417 -1.2848332
8.5460157 1.9488437 -1.2866095
8.6421165 1.9513382 -1.2886471
8.7474203 1.9501448 -1.2919736
8.8487177 1.9478333 -1.2953334
8.9398184 1.950068 -1.2986363
9.0147495 1.91 -1.3
4.1875 2.0032499 -1.20025
4.2708311 2.0488319 -1.2016679
4.3510199 2.0491216 -1.2041129
4.4513955 2.0482576 -1.2069882
4.5499387 2.049365 -1.2101855
4.6484771 2.0489914 -1.2138206
4.7496943 2.0478532 -1.2174388
4.8478503 2.048764 -1.2205085
4.9498396 2.0484078 -1.2229431
5.0493312 2.0486364 -1.2248176
5.1479607 2.0498679 -1.2266321
5.250773 2.0507979 -1.2281964
5.352746 2.0509906 -1.2292904
5.4519572 2.0479672 -1.2290031
5.5510507 2.0495412 -1.2291127
5.6478782 2.0502424 -1.2295516
5.7490177 2.0468237 -1.231053
5.8510342 2.0474291 -1.2328173
5.9521742 2.0481577 -1.2348331
6.0477867 2.0499599 -1.2370714
6.1467905 2.0477908 -1.2387338
6.2484846 2.0505702 -1.2410852
6.3471937 2.0486369 -1.2438114
6.4518752 2.0473597 -1.2461354
6.5493813 2.0474818 -1.2485477
6.6481752 2.0528922 -1.2524489
6.7470121 2.0488 -1.2563624
6.8482347 2.047375 -1.2604705
6.9498849 2.0504363 -1.2643331
7.0500546 2.0469062 -1.2671796
7.1483417 2.0487497 -1.2698585
7.2455006 2.0525751 -1.2722085
7.352725 2.0466468 -1.2750431
7.4545436 2.0481207 -1.277293
7.5564628 2.0521388 -1.279361
7.654953 2.0503175 -1.2812212
7.7413859 2.0474272 -1.2820624
7.843688 2.047714 -1.2826339
7.9485302 2.0509899 -1.2831101
8.0471239 2.0507498 -1.2839546
8.1527071 2.0492394 -1.2844782
8.2577248 2.0492499 -1.2849125
8.349328 2.0530624 -1.285375
8.4500914 2.0476711 -1.2866184
8.554266 2.0506718 -1.2887501
8.6511116 2.0495834 -1.2904029
8.7508841 2.0499039 -1.2932693
8.8480501 2.0485501 -1.2961668
8.9398928 2.0408928 -1.2995001
4.2661848 2.1485848 -1.2014457
4.3504605 2.1492026 -1.2044086
4.4490733 2.149318 -1.2076712
4.5508552 2.1488738 -1.210847
4.6504402 2.1498723 -1.2143451
4.7486234 2.1473536 -1.2176752
4.8500371 2.1503389 -1.2205923
4.9475861 2.149241 -1.2226878
5.0523195 2.1465731 -1.2247193
5.1522431 2.150017 -1.2265846
5.2489376 2.1499901 -1.2282058
5.3507371 2.1518714 -1.2292235
5.4500141 2.1485903 -1.2289649
5.5497446 2.148504 -1.2289362
5.649272 2.1483319 -1.229597
5.7508364 2.148036 -1.2306628
5.8494606 2.1481004 -1.2322323
5.949996 2.1486094 -1.2344334
6.0528846 2.1469324 -1.2364807
6.1490197 2.1476202 -1.2381632
6.2495356 2.1498101 -1.2403451
6.3506804 2.1480432 -1.243304
6.4505434 2.149929 -1.2457553
6.5482297 2.1477501 -1.2482014
6.6496148 2.1519642 -1.2519716
6.7510476 2.1501112 -1.2560833
6.848352 2.1485393 -1.2600471
6.9459925 2.1534045 -1.2639486
7.0488639 2.1464856 -1.2672856
7.1576557 2.1473103 -1.2709744
7.2525601 2.1474566 -1.2736554
7.3491096 2.1495705 -1.2761563
7.4444346 2.1492279 -1.2783259
7.5513034 2.1532955 -1.2803713
7.6573806 2.1531191 -1.2822142
7.7550001 2.1472504 -1.2832608
7.8528833 2.1533172 -1.2839329
7.9517498 2.1551249 -1.2845455
8.0492878 2.1466751 -1.2851374
8.141222 2.1503196 -1.2860553
8.253499 2.1450593 -1.2867978
8.3532028 2.1478453 -1.2879405
8.4538908 2.1499534 -1.2888125
8.5479536 2.1474843 -1.2902968
8.6385775 2.1535313 -1.2922658
8.7523499 2.1459832 -1.2946833
8.8474989 2.1470177 -1.2970535
8.9210005 2.1593752 -1.2993751
10.99775 2.1972499 -1.2845
11.057712 2.1891441 -1.2527044
11.150648 2.1672263 -1.2502379
11.22894 2.14764 -1.2500699
4.16225 2.2490001 -1.2005
4.2596273 2.2467413 -1.2016351
4.3480649 2.2510502 -1.2050111
4.4495149 2.2507324 -1.2082232
4.5479298 2.2486174 -1.2113054
4.6487093 2.2475307 -1.2146174
4.7499638 2.2476633 -1.2177068
4.8521676 2.2494226 -1.2202623
4.9487081 2.2496829 -1.2226729
5.0470386 2.247473 -1.2246895
5.1478558 2.2488978 -1.2264316
5.2486372 2.2506549 -1.2277462
5.3486161 2.2470076 -1.2287292
5.4510188 2.250761 -1.2288671
5.5511584 2.2490664 -1.2288599
5.6515374 2.2483923 -1.2292843
5.7510223 2.2475266 -1.2304422
5.8485088 2.250082 -1.2322415
5.9538951 2.2489848 -1.2342601
6.0486031 2.2476814 -1.2359803
6.1491055 2.2500832 -1.2377611
6.247766 2.2470279 -1.2398052
6.3489337 2.2493048 -1.2427197
6.4500055 2.2510359 -1.2454582
6.5544748 2.246763 -1.2481923
6.6522965 2.2467093 -1.2519323
6.7532716 2.2507715 -1.2558284
6.8502574 2.2460835 -1.2600249
6.9470325 2.2532983 -1.2637902
7.0485511 2.2482429 -1.2673087
7.1497998 2.2470918 -1.271
7.251802 2.2532156 -1.2741983
7.3516707 2.2473404 -1.2770401
7.4497676 2.2497945 -1.2792143
7.5481377 2.2550001 -1.2813126
7.6454558 2.2482321 -1.2825981
7.7441525 2.249902 -1.283761
7.8416734 2.2498589 -1.2847717
7.9496942 2.2483335 -1.2856803
8.0424604 2.2443817 -1.2862762
8.1421843 2.2477634 -1.2871712
8.2460823 2.251514 -1.288486
8.3525 2.2423635 -1.2892728
8.4538002 2.2563872 -1.2894623
8.5540924 2.2631712 -1.2830657
8.6452961 2.2743101 -1.2548704
8.7481785 2.2489107 -1.2954465
8.8392944 2.2655296 -1.2773823
8.9101667 2.2562499 -1.29975
10.5855 2.298625 -1.2737499
10.651145 2.2869046 -1.2521189
10.754908 2.2627227 -1.2505379
10.850848 2.2394252 -1.2523314
10.949456 2.216444 -1.2485249
11.013532 2.2065938 -1.2194375
4.1929164 2.3588333 -1.2009166
4.2613459 2.3474791 -1.2017876
4.3493896 2.3504064 -1.2053466
4.4518414 2.3521752 -1.2088717
4.5501304 2.3485196 -1.2117839
4.6489463 2.3475094 -1.2145966
4.7499685 2.3479612 -1.217375
4.8498111 2.3505993 -1.2199621
4.9516816 2.3497467 -1.2223028
5.0502725 2.3505824 -1.2244964
5.1491542 2.3497131 -1.2263088
5.2507753 2.3478916 -1.2277246
5.3527102 2.3485754 -1.2282618
5.452004 2.3482225 -1.2287772
5.5506477 2.3509371 -1.2289104
5.6495671 2.3499999 -1.2293545
5.7491074 2.3504696 -1.2305868
5.850143 2.3460286 -1.2323346
