# .PCD v0.7 - Point Cloud Data file format
VERSION 0.7
FIELDS x y z
SIZE 4 4 4
TYPE F F F
COUNT 1 1 1
WIDTH 1499
HEIGHT 1
VIEWPOINT 0 0 0 1 0 0 0
POINTS 1499
DATA ascii
-16.031717 17.845049 -0.9224807
-17.140032 16.437576 -0.34543702
-15.451515 18.545952 -1.4354827
-17.142277 16.438229 0.081776999
-15.450751 18.543032 -0.99927521
-17.170265 16.464647 0.51076108
-15.450182 18.54035 -0.56292665
-15.494814 18.594063 -0.12690243
-17.144945 16.44569 -1.2016071
-15.487075 18.582436 0.31041896
-17.123972 16.423088 -0.77259463
-14.900732 19.299816 -0.19818826
-16.576666 17.126511 -1.2774923
-14.901351 19.298527 0.24146423
-16.576508 17.124632 -0.84716123
-14.904487 19.300621 0.68180686
-16.584787 17.131836 -0.41675934
-16.590597 17.136385 0.013348931
-14.880781 19.277229 -1.0785801
-16.604832 17.149996 0.44439229
-14.871608 19.262766 -0.63765198
-16.044479 17.856169 -0.056215242
-14.863907 19.256645 -1.5163999
-16.051189 17.862112 0.37676936
-17.123863 16.426176 -1.6284811
-13.755174 19.392488 -2.4162388
-5.856554 6.1091022 -2.088881
-14.236635 20.095125 -2.054698
-6.4154959 6.7613735 -2.1146233
-14.249023 20.110943 -1.6102459
-8.7797413 9.5201941 -2.1788628
-14.264809 20.122446 0.62003279
-11.734043 12.967604 -2.2714102
-15.393811 18.615515 -2.3099158
-3.8578506 3.7768157 -2.0314355
-15.402627 18.624611 -1.8741255
-7.0226603 7.469841 -2.124661
-15.372385 18.574713 0.74529374
-10.032016 10.981474 -2.2146089
-15.009519 15.556441 -2.335057
-0.049278572 -0.67552257 -0.016008137
-15.316463 15.887883 -1.98333
-5.4216108 5.6015816 -2.0796027
-16.525669 17.198034 -1.7087251
-7.8024678 8.3796549 -2.1133742
-15.995872 17.927082 0.81155217
-13.952462 15.556214 -2.3206
-16.002983 17.933527 1.2456107
-15.952316 17.889166 -2.219389
-16.020491 17.950256 2.1148021
-14.737563 19.235695 -2.386579
-16.031822 17.957924 3.4189966
-16.02035 15.436002 -2.3326974
-16.047935 17.97113 4.7323837
-16.193199 15.60885 -1.9515361
-16.100019 18.024416 6.4897971
-14.824947 19.352015 -1.9602166
-15.968023 17.900122 -0.48852655
-14.247994 20.107117 -1.1641126
-14.251546 20.109999 -0.71817726
-15.973367 17.911898 -1.7891531
-14.252898 20.109659 -0.27248707
-15.971351 17.9077 -1.3556963
-14.254312 20.109407 0.17393908
-15.969569 17.903776 -0.92239231
-17.085831 16.502808 -0.34532285
-15.394269 18.61212 -1.4361601
-17.093704 16.509144 0.082064889
-15.40099 18.618587 -1.0001489
-17.115965 16.529974 0.51115853
-15.380517 18.59087 -0.56259489
-15.375144 18.58214 -0.12628242
-17.090706 16.510942 -1.2017753
-15.387375 18.595524 0.30997428
-17.078264 16.496788 -0.7729975
-14.842785 19.367632 -0.19808418
-16.522545 17.192923 -1.2778848
-14.850536 19.375994 0.24204579
-16.527819 17.196922 -0.84761542
-14.84416 19.365219 0.68250567
-16.538792 17.207098 -0.41692525
-16.539164 17.205784 0.013598116
-14.822906 19.344971 -1.0791839
-16.556057 17.222378 0.4450008
-14.823286 19.343349 -0.63830227
-15.987497 17.921005 -0.055998251
-14.810833 19.330746 -1.5178384
-15.994188 17.926966 0.37719864
-17.072498 16.49419 -1.6290569
-13.660487 19.403976 -2.4116654
-5.8328409 6.1293535 -2.0887945
-14.186435 20.177532 -2.0576713
-6.3971028 6.7925119 -2.1170437
-14.192078 20.183519 -1.6117575
-8.7466631 9.5536394 -2.1793692
-14.210094 20.198397 0.62109882
-11.676073 12.996236 -2.2692435
-15.33873 18.684608 -2.3115251
-3.8422906 3.7901046 -2.0313785
-15.342589 18.687496 -1.8747832
-6.9992747 7.5001364 -2.1261008
-15.364594 18.703352 0.74850684
-9.9989672 11.02532 -2.2161617
-14.968889 15.626193 -2.3373554
-0.049278572 -0.67552257 -0.016008137
-15.272012 15.955787 -1.9848566
-5.402185 5.6232738 -2.0804915
-16.468576 17.261337 -1.7090505
-7.7759209 8.4126873 -2.114645
-15.936026 17.988708 0.81205958
-13.921492 15.634963 -2.324681
-15.932751 17.983004 1.2454368
-15.902911 17.962795 -2.2213066
-15.960546 18.011936 2.115732
-14.682096 19.306147 -2.3886185
-15.97952 18.028633 3.4220057
-15.966813 15.494512 -2.3328941
-16.000572 18.047733 4.7379351
-16.158638 15.687842 -1.9540153
-16.042164 18.089085 6.4930987
-14.769094 19.422792 -1.9618349
-15.916048 17.970808 -0.48867574
-14.193319 20.183014 -1.1653125
-14.190139 20.175989 -0.71847677
-15.908397 17.967384 -1.788916
-14.202725 20.192207 -0.27263632
-15.927098 17.987513 -1.3572083
-14.19965 20.185335 0.17443871
-15.912396 17.968374 -0.92259943
-17.034185 16.570723 -0.34526241
-15.349133 18.693779 -1.437987
-17.042038 16.57708 0.082337379
-15.358331 18.703426 -1.0015001
-17.055805 16.589434 0.51138252
-15.33053 18.666241 -0.56297278
-15.312794 18.641792 -0.12607494
-17.036226 16.576029 -1.201943
-15.307616 18.633249 0.30995283
-17.026638 16.564676 -0.77314925
-14.779831 19.428827 -0.1979209
-16.465473 17.256222 -1.2780695
-14.794643 19.44689 0.24254552
-16.470737 17.260237 -0.84765863
-14.785935 19.432854 0.68331718
-16.478973 17.267498 -0.41676074
-16.479351 17.26618 0.013833368
-14.767106 19.415771 -1.0799577
-16.490784 17.27693 0.44515562
-14.769865 19.417381 -0.63875157
-15.932863 17.988708 -0.055787079
-14.747996 19.39183 -1.5183115
-15.942122 17.997732 0.37775695
-17.02367 16.564898 -1.6298984
-13.556983 19.401859 -2.4055204
-5.8040299 6.1435699 -2.0868993
-14.118009 20.233397 -2.0580587
-6.36343 6.8056831 -2.1144335
-14.130322 20.249338 -1.6127626
-8.710906 9.5839624 -2.1792388
-14.157239 20.27755 0.62226701
-11.618037 13.024636 -2.2670763
-15.295635 18.769234 -2.3149867
-3.8291211 3.8062322 -2.0326228
-15.294597 18.765896 -1.8769423
-6.9656334 7.5183725 -2.1244531
-15.333872 18.803873 0.75060821
-9.960619 11.063033 -2.2165799
-14.914573 15.681146 -2.3375633
-0.049278572 -0.67552257 -0.016008137
-15.235308 16.03244 -1.987426
-5.377666 5.6389799 -2.0794425
-16.424652 17.339235 -1.7107642
-7.7441521 8.4396286 -2.1145291
-15.881094 18.056255 0.81283778
-13.867042 15.686355 -2.3249021
-15.88299 18.056629 1.2469085
-15.853178 18.03631 -2.2232232
-15.913219 18.088646 2.1183932
-14.642694 19.399 -2.393327
-15.926915 18.099218 3.4250157
-15.8908 15.530087 -2.3298397
-15.942715 18.112246 4.7404504
-16.095848 15.738299 -1.9531296
-15.964058 18.129967 6.4882321
-14.715262 19.496655 -1.9637636
-15.866349 18.044416 -0.48890117
-14.129346 20.245533 -1.1657827
-14.121731 20.231869 -0.71844119
-15.858668 18.040943 -1.7904122
-14.14096 20.258081 -0.27258092
-15.861854 18.042843 -1.3569705
-14.140142 20.254509 0.17487893
-15.860116 18.038916 -0.92310196
-16.979473 16.63563 -0.34514678
-15.296211 18.76594 -1.4391226
-16.987305 16.642012 0.08259435
-15.295524 18.76305 -1.0015745
-17.003819 16.657267 0.5118683
-15.282663 18.744646 -0.56343818
-15.30699 18.77364 -0.12627721
-16.98428 16.643806 -1.2023057
-15.304308 18.768209 0.31157491
-16.977533 16.635277 -0.77342522
-14.730735 19.509241 -0.19793183
-16.429651 17.342989 -1.279912
-14.736072 19.51441 0.24300462
-16.424164 17.335209 -0.84824789
-14.729762 19.503567 0.68424189
-16.427 17.336582 -0.4167932
-16.438147 17.347097 0.014103847
-14.720387 19.499359 -1.0814133
-16.44685 17.354919 0.44591725
-14.706693 19.478359 -0.63880008
-15.88052 18.059319 -0.055581525
-14.689595 19.459183 -1.5192659
-15.879418 18.056149 0.37805918
-16.968966 16.629776 -1.6302066
-13.564195 19.564779 -2.4190278
-5.797718 6.1845407 -2.0931423
-14.075944 20.328814 -2.0623221
-6.3372865 6.8276968 -2.1143384
-14.079374 20.331577 -1.6150302
-8.6877356 9.629283 -2.1822891
-14.092903 20.339954 0.62293088
-11.588008 13.086242 -2.2703893
-15.230121 18.825499 -2.3151121
-3.8134608 3.8194187 -2.0325658
-15.2389 18.834745 -1.8781992
-6.947083 7.5545158 -2.1274357
-15.282985 18.879169 0.75172061
-9.9221392 11.10061 -2.2169976
-14.812084 15.682754 -2.3302503
-0.049278572 -0.67552257 -0.016008137
-15.18224 16.091282 -1.9879071
-5.3381534 5.6367369 -2.072578
-16.369696 17.405188 -1.7113658
-7.7072368 8.460412 -2.1130273
-15.823333 18.120571 0.81348163
-13.822636 15.749742 -2.3268373
-15.835494 18.133179 1.248587
-15.800584 18.106638 -2.2247798
-15.855317 18.153027 2.1196709
-14.572552 19.449835 -2.3930764
-15.868932 18.163582 3.426918
-15.836915 15.588162 -2.3300354
-15.897245 18.191603 4.7467628
-16.035685 15.791373 -1.9525801
-15.903291 18.191242 6.4905138
-14.661114 19.570372 -1.9656914
-15.811202 18.111765 -0.48897147
-14.087311 20.341084 -1.1680737
-14.073103 20.317436 -0.71940762
-15.806077 18.111305 -1.7916186
-14.08114 20.327099 -0.27256539
-15.811832 18.116287 -1.3580434
-14.080336 20.323519 0.17532
-15.802417 18.103178 -0.92330772
-16.932878 16.708969 -0.34519354
-15.240531 18.834814 -1.4400274
-16.940691 16.715374 0.082900964
-15.247227 18.841385 -1.0026047
-16.957148 16.730677 0.51252902
-15.123875 18.680965 -0.55991298
-15.263587 18.858334 -0.12621002
-16.929295 16.708557 -1.2024719
-15.278132 18.874973 0.312722
-16.919796 16.697138 -0.77332532
-14.671909 19.576572 -0.19782525
-16.372011 17.405998 -1.280095
-14.679569 19.584997 0.24350604
-16.366556 17.398199 -0.84828961
-14.668611 19.567636 0.68494302
-16.37475 17.405516 -0.41682485
-16.388546 17.419037 0.01436046
-14.659246 19.563414 -1.0818439
-16.391857 17.420946 0.44637656
-14.640949 19.535879 -0.63874805
-15.830467 18.132841 -0.055381589
-14.63326 19.529593 -1.5204606
-15.824233 18.123529 0.37855476
-16.914024 16.694471 -1.630514
-13.475868 19.585316 -2.4156334
-5.766263 6.1956034 -2.0903425
-14.011349 20.390966 -2.0633543
-6.2935472 6.8285799 -2.1083748
-14.021399 20.403736 -1.6165389
-8.6542416 9.6624365 -2.1827943
-14.037135 20.415504 0.62399995
-11.539902 13.126463 -2.2702143
-15.171699 18.891005 -2.3163481
-3.7929137 3.8267372 -2.029907
-15.182898 18.903454 -1.8794552
-6.9208264 7.5815859 -2.128103
-15.22441 18.944874 0.75246251
-9.8784418 11.131985 -2.2162807
-14.760212 15.740132 -2.3308756
-0.049278572 -0.67552257 -0.016008137
-15.136926 16.158859 -1.989431
-5.3334641 5.6760683 -2.0792816
-16.317142 17.473946 -1.7122445
-7.6803427 8.4931698 -2.1142969
-15.778092 18.200085 0.81480205
-13.755038 15.785522 -2.3249137
-15.779966 18.200434 1.2496494
-15.750222 18.179905 -2.2266946
-15.804799 18.226433 2.1219876
-14.506848 19.50691 -2.3935876
-15.825892 18.246035 3.4321475
-15.76348 15.626012 -2.3273871
-15.83631 18.252794 4.7485213
-16.005772 15.875793 -1.9557292
-15.859622 18.273129 6.4999447
-14.604286 19.640728 -1.9673069
-15.755762 18.178968 -0.48904088
-14.013861 20.389973 -1.1678135
-14.01741 20.392937 -0.72003871
-15.758271 18.187677 -1.7934017
-14.020998 20.395956 -0.27254891
-15.75381 18.18042 -1.3584598
-14.026839 20.402374 0.17585304
-15.757233 18.182636 -0.92425227
-16.885973 16.782202 -0.34523931
-15.184544 18.90354 -1.4409312
-16.874323 16.768473 0.083093993
-15.193671 18.913305 -1.0033151
-16.901833 16.795345 0.51292926
-14.911888 18.54682 -0.55444086
-15.212433 18.933477 -0.12608828
-16.874054 16.773142 -1.2026374
-15.21713 18.937508 0.31312764
-16.870152 16.767443 -0.7735998
-14.615103 19.647003 -0.19774681
-16.327471 17.483698 -1.2813135
-14.622733 19.655449 0.24400848
-16.308712 17.461006 -0.84833074
-14.616489 19.644537 0.68609405
-16.324892 17.477283 -0.41692147
-16.333298 17.484892 0.014607927
-14.600146 19.630545 -1.0824441
-16.333933 17.483829 0.44676077
-14.595927 19.622454 -0.63959408
-15.774953 18.200111 -0.055167869
-14.585896 19.612856 -1.5226187
-15.776431 18.199989 0.37924427
-16.864368 16.764748 -1.631353
-13.48818 19.758471 -2.430315
-5.752172 6.2275581 -2.0938718
-13.961829 20.476244 -2.0666459
-6.2822652 6.8684464 -2.1133089
-13.956507 20.465742 -1.6172885
-8.605526 9.6772165 -2.1794825
-13.98321 20.494263 0.6251713
-11.501768 13.178751 -2.2720315
-15.122714 18.968975 -2.3190656
-3.7795856 3.8427169 -2.0311503
-15.13147 18.978327 -1.8813111
-6.8844628 7.5964699 -2.1256828
-15.17288 19.019913 0.75357682
-9.8422127 11.172353 -2.2172649
-14.729266 15.82113 -2.3348424
-0.049278572 -0.67552257 -0.016008137
-15.091317 16.226332 -1.9909543
-5.3137336 5.6974897 -2.0801697
-16.264301 17.542566 -1.7131224
-7.6633501 8.5379953 -2.1183379
-15.722297 18.267187 0.81558275
-13.684825 15.817967 -2.3225615
-15.721613 18.264448 1.2505066
-15.702076 18.256113 -2.2289674
-15.759038 18.305853 2.1249981
-14.459385 19.589735 -2.3971488
-15.769841 18.31316 3.4346063
-15.698225 15.672172 -2.3259573
-15.785155 18.32588 4.7533164
-15.967192 15.951571 -1.9578685
-15.793364 18.328131 6.5001855
-14.542525 19.704437 -1.9682987
-15.712789 18.261425 -0.4894948
-13.960007 20.468651 -1.1691915
-13.965756 20.474977 -0.72089124
-15.702498 18.254715 -1.7943172
-13.967145 20.474676 -0.27265319
-15.700618 18.250532 -1.3593127
-13.966368 20.471085 0.17629606
-15.698951 18.246607 -0.9244563
-16.838758 16.855318 -0.34528419
-15.12827 18.972101 -1.4418343
-16.832693 16.847322 0.083434954
-15.127644 18.969227 -1.0032278
-16.849041 16.862726 0.51341736
-15.132046 18.972902 -0.56465095
-15.163382 19.011667 -0.12598325
-16.824093 16.843325 -1.2031933
-15.158321 19.003014 0.31358701
-16.806393 16.823177 -0.77324867
-14.560301 19.720545 -0.19769651
-16.261322 17.537443 -1.2808732
-14.567902 19.72901 0.24455345
-16.26125 17.53558 -0.84891737
-14.568646 19.727835 0.68747079
-16.269405 17.542955 -0.41688573
-16.277784 17.550589 0.014856147
-14.536121 19.690996 -1.0827025
-16.281075 17.552507 0.44729745
-14.538889 19.692669 -0.63993979
-15.72426 18.273384 -0.054966047
-14.526555 19.679762 -1.5235705
-15.725739 18.27326 0.37987038
-16.806147 16.826244 -1.631393
-13.353685 19.708611 -2.418668
-5.7107491 6.2263556 -2.087455
-13.894455 20.534714 -2.067353
-6.2608614 6.8962269 -2.1148901
-13.904454 20.5476 -1.6195531
-8.5843735 9.725358 -2.1831672
-13.920164 20.5595 0.62593895
-11.463418 13.230938 -2.2738478
-15.070953 19.043671 -2.3214114
-3.7637968 3.8557322 -2.0310931
-15.070031 19.04039 -1.8819648
-6.8580427 7.6233349 -2.1263497
-15.11131 19.082109 0.75419629
-9.7957792 11.200365 -2.2159805
-14.682138 15.884219 -2.3363018
-0.049278572 -0.67552257 -0.016008137
-15.008487 16.251879 -1.9876074
-5.2865391 5.7098475 -2.0781507
-16.205904 17.605051 -1.7134439
-7.613656 8.5432215 -2.1133709
-15.663696 18.331036 0.81622905
-13.642317 15.883927 -2.3249235
-15.673159 18.34063 1.2521878
-15.648547 18.326054 -2.2305217
-15.690157 18.35747 2.1248927
-14.409233 19.669212 -2.4003274
-15.72107 18.389299 3.438729
-15.663018 15.749785 -2.3289945
-15.733694 18.398838 4.7581134
-15.892593 15.989713 -1.9556357
-15.753951 18.415751 6.5116601
-14.485106 19.774467 -1.9699124
-15.651673 18.322168 -0.48940846
-13.901412 20.540508 -1.1702044
-13.904966 20.54352 -0.72129756
-15.641396 18.315426 -1.7946546
-13.91292 20.553268 -0.27275637
-15.644606 18.31741 -1.3599461
-13.912155 20.549667 0.1768312
-15.645495 18.316572 -0.92495525
-16.771963 16.908012 -0.34494874
-15.069283 19.037336 -1.4425067
-16.768679 16.902889 0.083645463
-15.071097 19.037645 -1.0037773
-16.798756 16.932835 0.51399332
-15.082765 19.050879 -0.56511211
-15.104273 19.077028 -0.12580642
-16.765608 16.904671 -1.2031621
-15.101666 19.071533 0.31410035
-16.756243 16.893148 -0.77352172
-14.507483 19.797211 -0.19767426
-16.21353 17.611889 -1.281883
-14.512747 19.802427 0.24509937
-16.202885 17.598055 -0.84895694
-14.508876 19.79471 0.68828684
-16.213661 17.608454 -0.41684923
-16.219368 17.613115 0.015099974
-14.48339 19.767569 -1.0838128
-16.235897 17.630018 0.44806278
-14.481549 19.762724 -0.64028454
-15.67072 18.343439 -0.054757021
-14.471542 19.753019 -1.5250033
-15.66458 18.33404 0.38023975
-16.755966 16.896204 -1.6322304
-13.340878 19.845163 -2.429024
-5.6989279 6.2612066 -2.0918882
-13.859348 20.643169 -2.0729024
-6.222044 6.9027252 -2.1106029
-13.84765 20.622658 -1.6213111
-8.5579948 9.7673597 -2.1855798
-13.874225 20.651405 0.62751746
-11.402271 13.255341 -2.2711816
-15.00443 19.09919 -2.3215342
-3.7407968 3.8598931 -2.0271332
-15.015554 19.111813 -1.8835185
-6.8290348 7.6470757 -2.1262445
-15.05431 19.150499 0.75506449
-9.7542667 11.234342 -2.2158298
-14.618999 15.929244 -2.3352544
-0.049278572 -0.67552257 -0.016008137
-14.965076 16.321991 -1.9894772
-5.2715721 5.7371416 -2.0809767
-16.157785 17.679356 -1.7148752
-7.5864081 8.5757017 -2.1146395
-15.599776 18.388517 0.81660533
-13.574382 15.918975 -2.3229995
-15.614253 18.404327 1.2530468
-15.582122 18.380419 -2.2302806
-15.641249 18.43354 2.1275587
-14.3427 19.725769 -2.4008367
-15.656918 18.446924 3.4395254
-15.564612 15.76081 -2.3226907
-15.667002 18.453423 4.7583556
-15.845268 16.056532 -1.9567649
-15.69943 18.485361 6.5170083
-14.431939 19.850887 -1.9721476
-15.595369 18.388922 -0.4894754
-13.842478 20.612223 -1.1712164
-13.839507 20.605188 -0.72148049
-15.590134 18.388313 -1.7961462
-13.847428 20.614965 -0.27265605
-15.593352 18.390324 -1.3610156
-13.844502 20.608 0.1771847
-15.591733 18.3864 -0.92545348
-16.721464 16.977919 -0.34493789
-15.007607 19.099216 -1.4429483
-16.729185 16.984411 0.084004693
-15.014248 19.105911 -1.0043259
-16.74542 16.999916 0.51448298
-15.037939 19.135138 -0.56574923
-15.054537 19.154982 -0.12569939
-16.715107 16.97455 -1.2037164
-15.042295 19.136713 0.31456134
-16.705791 16.963001 -0.77379394
-14.447408 19.863939 -0.19756404
-16.154865 17.674225 -1.2820631
-14.452652 19.869165 0.24556291
-16.154823 17.672369 -0.8495419
-14.4511 19.8647 0.68921626
-16.162928 17.679802 -0.41694331
-16.163343 17.678471 0.015349614
-14.423407 19.834206 -1.0844105
-16.169256 17.683403 0.4482213
-14.430773 19.842459 -0.64092755
-15.611817 18.407154 -0.054534577
-14.4116 19.819605 -1.5259533
-15.615822 18.410126 0.38093206
-16.702747 16.963142 -1.6328011
-13.247663 19.857969 -2.4248426
-5.6722379 6.277874 -2.0908964
-13.782713 20.687906 -2.0723166
-6.2127795 6.9455328 -2.1163738
-13.79051 20.697565 -1.6230682
-8.5115671 9.7847347 -2.1829033
-13.804037 20.706242 0.62798303
-11.358582 13.301073 -2.272001
-14.95206 19.17359 -2.3238778
-3.7297046 3.8786552 -2.0296776
-14.958377 19.179903 -1.8847711
-6.8048892 7.6768131 -2.1276822
-14.98982 19.209137 0.75556135
-9.7126465 11.268164 -2.2156789
-14.589703 16.013016 -2.3396358
-0.049278572 -0.67552257 -0.016008137
-14.905661 16.37397 -1.9892597
-5.2369637 5.7402639 -2.0760508
-16.096249 17.738495 -1.714918
-7.5565577 8.6050367 -2.1152153
-15.548243 18.461302 0.8176589
-13.503881 15.950644 -2.3206468
-15.55511 18.467829 1.2539062
-15.533072 18.456215 -2.2325506
-15.579477 18.494011 2.1284935
-14.296415 19.811518 -2.4047751
-15.605045 18.519703 3.4430954
-15.515316 15.8236 -2.3236964
-15.61003 18.51996 4.7616353
-15.792229 16.117403 -1.9572209
-15.639758 18.548803 6.5203152
-14.369317 19.91408 -1.9731371
-15.541321 18.458605 -0.48961851
-13.794036 20.700579 -1.1731369
-13.791107 20.69355 -0.7225523
-15.52853 18.448654 -1.7964821
-13.790352 20.689909 -0.27271679
-15.536772 18.456886 -1.3616474
-13.785288 20.679562 0.17766082
-15.540205 18.459179 -0.92609859
-16.667955 17.044758 -0.34487215
-14.964876 19.186453 -1.4452279
-16.670179 17.045439 0.084249474
-14.959516 19.177216 -1.0050329
-16.69183 17.066826 0.51497328
-14.978308 19.200132 -0.56585443
-14.997238 19.223228 -0.12553847
-16.664335 17.044287 -1.2042701
-14.985062 19.20491 0.31507632
-16.655064 17.032705 -0.77406532
-14.384767 19.927202 -0.19742411
-16.103844 17.745398 -1.2828637
-14.394561 19.939011 0.24606895
-16.106441 17.746565 -0.85012591
-14.395305 19.937807 0.69025898
-16.117159 17.757042 -0.41716778
-16.109695 17.74666 0.015605135
-14.372272 19.91379 -1.0856894
-16.120846 17.757637 0.44891229
-14.370487 19.908951 -0.6411708
-15.552676 18.470678 -0.054311492
-14.355937 19.892574 -1.5273844
-15.559182 18.476763 0.38143182
-16.649273 17.029917 -1.633371
-13.201593 19.944216 -2.4293027
-5.6430559 6.2914076 -2.0890005
-13.727354 20.765991 -2.0749581
-6.1738977 6.9517775 -2.112087
-13.728702 20.765614 -1.6243193
-8.4774771 9.8173161 -2.1834068
-13.744371 20.777716 0.62895596
-11.324641 13.359056 -2.2748115
-14.901724 19.251064 -2.3265913
-3.7161551 3.8944476 -2.0309203
-14.910431 19.260628 -1.8872235
-6.7756948 7.7003679 -2.1275764
-14.951385 19.302824 0.75742364
-9.6758575 11.308022 -2.2166615
-14.526155 16.057684 -2.3385873
-0.049278572 -0.67552257 -0.016008137
-14.833019 16.410685 -1.9873033
-5.2218289 5.7674351 -2.0788765
-16.044928 17.809509 -1.7160703
-7.5216513 8.6281376 -2.1144049
-15.486352 18.521511 0.81817192
-13.473164 16.031641 -2.3251495
-15.500704 18.537394 1.2551785
-15.476178 18.522596 -2.2337434
-15.532443 18.572926 2.1315076
-14.240657 19.884087 -2.4071884
-15.547869 18.586197 3.4455569
-15.457629 15.877515 -2.3234832
-15.572468 18.610825 4.7709908
-15.738946 16.178114 -1.9576763
-15.574966 18.60605 6.5215802
-14.310961 19.983652 -1.974748
-15.456896 18.490757 -0.48883805
-13.73223 20.768652 -1.1739649
-13.71858 20.744772 -0.72240007
-15.481672 18.527473 -1.7985494
-13.73505 20.768095 -0.27281675
-15.484904 18.52953 -1.362715
-13.730023 20.757725 0.17819905
-15.450775 18.485106 -0.92452669
-16.619623 17.117304 -0.34491384
-14.91216 19.260826 -1.4465868
-16.624571 17.120916 0.084577598
-14.914012 19.261192 -1.0063754
-16.632517 17.127735 0.51528978
-14.923177 19.271364 -0.56613559
-14.937251 19.288116 -0.12535912
-16.613268 17.113888 -1.2048228
-14.929914 19.276159 0.31564546
-16.601322 17.099354 -0.77421099
-14.33777 20.013317 -0.19748557
-16.052513 17.81645 -1.2836636
-14.340705 20.01528 0.24665946
-16.049887 17.811584 -0.8502996
-14.334629 20.004196 0.69107765
-16.057953 17.819075 -0.4170633
-16.058376 17.817738 0.015866699
-14.318489 19.989977 -1.0867966
-16.061636 17.819672 0.44930005
-14.314459 19.981852 -0.64161241
-15.503289 18.546505 -0.05411236
-14.299941 19.965401 -1.5288144
-15.504761 18.546371 0.38199699
-16.598246 17.099463 -1.6342062
-13.089087 19.926123 -2.4215868
-5.6284208 6.323103 -2.0925279
-13.667352 20.837214 -2.0769532
-6.1472383 6.973135 -2.1119907
-13.66872 20.836866 -1.6258219
-8.455575 9.865222 -2.1870897
-13.690795 20.859165 0.630234
-11.268157 13.389049 -2.2731402
-14.853397 19.331635 -2.3296735
-3.7001834 3.907243 -2.0308626
-14.847867 19.322025 -1.8878741
-6.7537589 7.7330284 -2.1297848
-14.888689 19.364355 0.75804639
-9.6166878 11.319911 -2.2125421
-14.478027 16.120216 -2.3400438
-0.049278572 -0.67552257 -0.016008137
-14.726545 16.407806 -1.9808278
-5.1944709 5.7794056 -2.0768571
-15.990705 17.877361 -1.716944
-7.4743953 8.6357098 -2.110131
-15.38931 18.537785 0.81678975
-13.407323 16.069098 -2.3236527
-15.41858 18.572475 1.2541854
-15.419008 18.588814 -2.2349353
-15.447742 18.605038 2.1293259
-14.19356 19.969662 -2.4111252
-15.480527 18.640146 3.4458005
-15.394353 15.925385 -2.322458
-15.507489 18.667913 4.7719941
-15.669193 16.221096 -1.9561145
-15.517209 18.672142 6.5259089
-14.263554 20.069523 -1.9779136
-15.422327 18.585066 -0.4895947
-13.665839 20.829803 -1.1744281
-13.66939 20.832903 -0.7234695
-15.426987 18.596842 -1.7997496
-13.67723 20.842775 -0.27287531
-15.435209 18.605164 -1.3639998
-13.6701 20.829 0.17867723
-15.388784 18.545013 -0.9245798
-16.560123 17.177979 -0.34473833
-14.851979 19.325445 -1.4472558
-16.567778 17.184542 0.084840365
-14.85146 19.322613 -1.006603
-16.586559 17.203127 0.51604366
-14.858212 19.329601 -0.56606239
-14.888889 19.3689 -0.12526663
-16.561916 17.183348 -1.2053747
-14.888735 19.366554 0.3165355
-16.547314 17.165842 -0.77435595
-14.279031 20.08287 -0.19740151
-15.985263 17.869186 -1.2832205
-14.275174 20.07494 0.247042
-15.987859 17.870367 -0.85019988
-14.287224 20.090208 0.69257236
-16.006327 17.890017 -0.41715482
-16.001543 17.88261 0.016118633
-14.259818 20.059454 -1.0875621
-16.017832 17.899714 0.45014513
-14.260345 20.057917 -0.64215267
-15.443578 18.609713 -0.053887643
-14.243602 20.038097 -1.5302435
-15.442553 18.606455 0.38236928
-16.541515 17.163002 -1.6345085
-13.08909 20.086151 -2.4346852
-5.608798 6.3486662 -2.0942473
-13.600668 20.898142 -2.0779793
-6.1326451 7.0097294 -2.1160839
-13.61479 20.918093 -1.628081
-8.4089289 9.8821383 -2.184413
-13.636827 20.940496 0.63151324
-11.214073 13.421925 -2.2719669
-14.781131 19.379993 -2.3290529
-3.6865158 3.9229472 -2.0321054
-14.792159 19.392855 -1.8894243
-6.7292447 7.7625561 -2.1312213
-14.837605 19.441784 0.75929052
-9.5772219 11.356359 -2.2129574
-14.424492 16.176548 -2.3406646
-0.049278572 -0.67552257 -0.016008137
-14.684943 16.480164 -1.9830431
-5.1791387 5.8064775 -2.0796821
-15.933631 17.942009 -1.7175397
-7.4663091 8.6924791 -2.1169403
-15.337052 18.609999 0.81784528
-13.326576 16.087587 -2.3195856
-15.326483 18.594683 1.2523681
-15.36652 18.661104 -2.2368441
-15.343205 18.611807 2.1243718
-14.130373 20.032104 -2.4123931
-15.356386 18.622467 3.433286
-15.312102 15.952487 -2.3185904
-15.461837 18.749384 4.7790732
-15.612822 16.278471 -1.9562328
-15.468806 18.750174 6.5343251
-14.206759 20.142113 -1.9798336
-15.374877 18.663687 -0.48996589
-13.616206 20.917818 -1.1763452
-13.611256 20.907404 -0.72409338
-15.379446 18.675436 -1.8018149
-13.619067 20.917309 -0.27293283
-15.375261 18.668158 -1.364411
-13.618371 20.913666 0.17927888
-15.343946 18.626648 -0.9256658
-16.505825 17.244343 -0.34467036
-14.796276 19.396307 -1.4483833
-16.516163 17.25387 0.085137002
-14.798146 19.396706 -1.0074663
-16.524054 17.260733 0.51627409
-14.807254 19.406948 -0.5665186
-14.823584 19.427015 -0.12505066
-16.507589 17.249716 -1.2057306
-14.825805 19.427885 0.31694657
-16.498463 17.23805 -0.77474976
-14.217739 20.148949 -0.19728781
-15.946375 17.955088 -1.2850538
-14.225159 20.15753 0.24771816
-15.936015 17.941093 -0.85064501
-14.22365 20.15299 0.6932804
-15.946631 17.951681 -0.41704899
-15.949664 17.953381 0.016381798
-14.196349 20.122158 -1.087986
-15.960696 17.964449 0.45061052
-14.217131 20.150385 -0.64318973
-15.314057 18.584957 -0.053491436
-14.193673 20.120544 -1.5323937
-15.315535 18.584839 0.38106215
-16.492651 17.235176 -1.635608
-12.947061 20.020086 -2.4214718
-5.5722103 6.3527365 -2.0896394
-13.54215 20.97241 -2.0802951
-6.096117 7.0186415 -2.1126349
-13.547776 20.978888 -1.6288245
-8.3744688 9.9143858 -2.1849158
-13.567633 20.997969 0.63208342
-11.162345 13.457719 -2.2712913
-14.729807 19.457071 -2.3317637
-3.6681087 3.9326642 -2.0307467
-14.736116 19.463558 -1.8909734
-6.6924758 7.7765903 -2.1288006
-14.774355 19.502966 0.75991476
-9.540061 11.395798 -2.213939
-14.38872 16.253971 -2.3442068
-0.049278572 -0.67552257 -0.016008137
-14.61209 16.515974 -1.9810866
-5.1564832 5.8243685 -2.0796003
-15.886603 18.018675 -1.7192442
-7.4384336 8.7245331 -2.1182072
-15.333917 18.744917 0.82161158
-13.28519 16.155745 -2.3223724
-15.338181 18.748329 1.2592061
-15.313704 18.733273 -2.2387516
-15.352196 18.762117 2.1353581
-14.062458 20.087763 -2.4128981
-15.364896 18.772226 3.4507272
-15.25933 16.011574 -2.3191881
-15.396354 18.806105 4.7800784
-15.556232 16.335667 -1.9563506
-15.408066 18.812927 6.5376353
-14.14293 20.204653 -1.9808197
-15.319639 18.73279 -0.49010563
-13.564 21.002356 -1.178079
-13.548526 20.974981 -0.72449416
-15.319206 18.738262 -1.8024364
-13.556305 20.984911 -0.27290878
-15.31999 18.737253 -1.3652577
-13.557739 20.984655 0.17975916
-15.28636 18.692497 -0.92601252
-16.448561 17.307598 -0.34454766
-14.740238 19.467041 -1.44951
-16.453472 17.311247 0.085367858
-14.742121 19.467459 -1.0081695
-16.472116 17.32995 0.51685482
-14.755911 19.484196 -0.56697363
-14.76982 19.501091 -0.12492125
-16.452993 17.315931 -1.2060856
-14.764964 19.492266 0.31741172
-16.443913 17.304235 -0.77489322
-14.162863 20.224804 -0.19725949
-15.894156 18.025721 -1.285851
-14.168015 20.230089 0.24826989
-15.878685 18.0056 -0.85081661
-14.164282 20.222218 0.6942144
-15.89444 18.022322 -0.41713884
-15.902638 18.030134 0.016656553
-14.14826 20.207867 -1.089601
-15.905871 18.032078 0.45115286
-14.144344 20.199722 -0.6429314
-15.298674 18.704145 -0.05337555
-14.127695 20.179739 -1.5328579
-15.285302 18.685154 0.38227516
-16.440784 17.304283 -1.6364406
-12.908257 20.119171 -2.4274995
-5.5572371 6.3842831 -2.0931661
-13.497978 21.070253 -2.084868
-6.0692286 7.0397234 -2.1125379
-13.495224 21.063227 -1.6313336
-8.3350277 9.9402905 -2.1841459
-13.510848 21.075607 0.63326317
-11.120277 13.505832 -2.2726061
-14.661787 19.51144 -2.3318822
-3.6520064 3.9452894 -2.0306885
-14.682114 19.537336 -1.8928219
-6.6701818 7.8090324 -2.1310081
-14.715561 19.570419 0.76078808
-9.5100565 11.444482 -2.2166204
-14.311623 16.282635 -2.3410695
-0.049278572 -0.67552257 -0.016008137
-14.575087 16.594168 -1.9839953
-5.1289945 5.8360586 -2.0775807
-15.834103 18.08913 -1.7203931
-7.3910398 8.7316551 -2.1139331
-15.293114 18.832788 0.82334745
-13.201892 16.170519 -2.3178771
-15.285047 18.820448 1.2606877
-15.267938 18.814716 -2.2417338
-15.303887 18.840506 2.138376
-13.996552 20.146496 -2.4137838
-15.313997 18.84737 3.4548564
-15.008736 15.852157 -2.2897499
-15.345188 18.881155 4.7856407
-15.486075 16.377882 -1.954788
-15.354238 18.884619 6.5440097
-14.087723 20.280245 -1.9830488
-15.195179 18.71349 -0.48809588
-13.494572 21.059599 -1.178358
-13.502337 21.069576 -0.72578198
-15.25872 18.800894 -1.803057
-13.497468 21.059135 -0.27296433
-15.264434 18.806189 -1.3661035
-13.498902 21.05888 0.18027103
-15.216206 18.742424 -0.92562068
-16.401806 17.382509 -0.34464008
-14.681556 19.534386 -1.4504061
-16.404022 17.383207 0.085682645
-14.676414 19.525105 -1.0082357
-16.417233 17.39604 0.51734877
-14.687804 19.538651 -0.56680995
-14.71573 19.575027 -0.12479088
-16.403513 17.387896 -1.2068306
-14.699174 19.549982 0.31777075
-16.394478 17.376165 -0.77528524
-14.100962 20.29055 -0.19714406
-15.841644 18.096214 -1.2866474
-14.110549 20.302498 0.24882251
-15.828826 18.0791 -0.85139626
-14.113517 20.304564 0.69559991
-15.839378 18.089762 -0.41716245
-15.847553 18.097599 0.016916221
-14.086409 20.273561 -1.0901936
-15.853351 18.102604 0.45177218
-14.084754 20.26873 -0.64326966
-15.27034 18.807686 -0.053227462
-14.07482 20.258621 -1.5347654
-15.26442 18.798092 0.38374859
-16.394009 17.37915 -1.6378042
-12.768973 20.055384 -2.4146814
-5.5301762 6.4004097 -2.0921733
-13.432414 21.134083 -2.0862138
-6.0446572 7.0638065 -2.1132786
-13.435961 21.137268 -1.6330845
-8.2834091 9.9504452 -2.180198
-13.44948 21.146315 0.6342411
-11.082867 13.560103 -2.2749164
-14.6075 19.584995 -2.3342206
-3.6404879 3.9638426 -2.0332317
-14.625431 19.607748 -1.894369
-6.6453347 7.8383226 -2.1324439
-14.658797 19.640965 0.76178658
-9.4604149 11.468069 -2.2147677
-14.267639 16.350666 -2.343358
-0.049278572 -0.67552257 -0.016008137
-14.547919 16.684551 -1.9882928
-5.0991073 5.8445692 -2.0745926
-15.776175 18.153324 -1.7209862
-7.3605728 8.7603655 -2.1145072
-15.234719 18.898512 0.82413566
-13.157626 16.235214 -2.3202343
-15.224239 18.882973 1.261552
-15.209573 18.880346 -2.2429223
-15.250319 18.912506 2.1407018
-13.923785 20.195086 -2.4135261
-15.279751 18.944309 3.4628704
-15.046717 16.010851 -2.304148
-15.28645 18.946783 4.7889252
-15.426455 16.431688 -1.9545689
-15.302457 18.959232 6.5514073
-14.027736 20.349072 -1.9846551
-14.91172 18.48815 -0.48110211
-13.439519 21.140471 -1.1799079
-13.447263 21.15049 -0.72662437
-15.205309 18.872808 -1.8045423
-13.448716 21.150263 -0.27321965
-15.211019 18.878138 -1.3671668
-13.43969 21.132963 0.180784
-15.167924 18.820532 -0.92655623
-16.357393 17.460308 -0.34478545
-14.631894 19.614542 -1.4522195
-16.354256 17.455061 0.085998386
-14.629136 19.608505 -1.0095732
-16.37009 17.470903 0.5181061
-14.645161 19.628599 -0.56761605
-14.654287 19.639091 -0.12460738
-16.348372 17.453802 -1.2071841
-14.649492 19.630222 0.31850481
-16.331364 17.433125 -0.77505326
-14.056487 20.382776 -0.19725707
-15.788823 18.166573 -1.2874432
-14.054955 20.378098 0.2494182
-15.773513 18.146349 -0.85170245
-14.055694 20.376825 0.69664842
-15.791727 18.166258 -0.41738135
-15.792182 18.164911 0.017176697
-14.026472 20.342413 -1.0909554
-15.797957 18.16993 0.45231616
-14.022629 20.334253 -0.64350754
-15.224297 18.889147 -0.053035744
-14.021557 20.337397 -1.5366716
-15.22331 18.885845 0.38470611
-16.32555 17.43018 -1.6370406
-12.73586 20.164289 -2.4218855
-5.5006981 6.4133415 -2.090277
-13.379009 21.218153 -2.089494
-6.0128427 7.0785084 -2.1115055
-13.378423 21.214573 -1.6350865
-8.2703552 10.010446 -2.1864214
-13.398187 21.233932 0.63572782
-11.021012 13.582826 -2.2722485
-14.545938 19.648685 -2.3354478
-3.6242769 3.9763715 -2.0331736
-14.568437 19.678013 -1.8959154
-6.5988312 7.8395405 -2.1269379
-14.608689 19.721117 0.76315892
-9.4228067 11.507144 -2.2157481
-14.208121 16.400223 -2.3431416
-0.049278572 -0.67552257 -0.016008137
-14.507585 16.759621 -1.9908519
-5.0810542 5.868331 -2.076448
-15.717999 18.217344 -1.7215788
-7.3348036 8.7952185 -2.116466
-15.180939 18.97039 0.82519573
-13.096101 16.277739 -2.3195932
-15.175378 18.961119 1.2634479
-15.153377 18.948952 -2.2444687
-15.201309 18.990673 2.1437218
-13.879355 20.286623 -2.4182193
-15.220842 19.009861 3.4653368
-15.004275 16.08094 -2.3063686
-15.220256 19.002905 4.7899318
-15.366645 16.485285 -1.9543493
-15.262161 19.049028 6.5639138
-13.978419 20.434376 -1.9878151
-15.154609 18.942347 -0.49059638
-13.37991 21.214396 -1.1810935
-13.38763 21.224455 -0.72724378
-15.15402 18.947739 -1.8063152
-13.380768 21.210571 -0.27311233
-15.152424 18.943615 -1.3677927
-13.36972 21.189819 0.18114403
-15.133925 18.917536 -0.92837554
-16.296648 17.520113 -0.34460652
-14.570253 19.678345 -1.4528843
-16.296194 17.517836 0.086264685
-14.57449 19.682068 -1.0104326
-16.317297 17.539694 0.51868933
-14.578837 19.685947 -0.56753904
-14.597224 19.70949 -0.1244578
-16.292971 17.519543 -1.2075368
-14.597106 19.707108 0.31918654
-16.281364 17.504774 -0.77544367
-13.987295 20.438225 -0.19705378
-15.725505 18.224491 -1.2874104
-13.994595 20.446884 0.2499308
-15.71537 18.210369 -0.85187179
-13.999741 20.452278 0.69781077
-15.736072 18.233416 -0.41740316
-15.733978 18.228987 0.017432528
-13.972828 20.421106 -1.0922266
-15.73463 18.227865 0.45263198
-13.973433 20.419621 -0.64434105
-15.172998 18.964182 -0.052831002
-13.965713 20.41272 -1.538336
-15.174464 18.964033 0.3854706
-16.278198 17.50477 -1.6384025
-12.617771 20.133511 -2.4129951
-5.4830194 6.4416409 -2.0928988
-13.310758 21.278215 -2.0905156
-5.9928665 7.1086254 -2.1139216
-13.320518 21.291733 -1.6370876
-8.218627 10.020267 -2.1824727
-13.340248 21.31118 0.63691097
-10.985639 13.639984 -2.2750554
-14.502532 19.738194 -2.3396347
-3.6057274 3.9858363 -2.0318143
-14.518056 19.757885 -1.8983606
-6.57622 7.8717289 -2.1291444
-14.555899 19.797901 0.76440805
-9.3802309 11.539812 -2.2155948
-14.156024 16.45878 -2.3441768
-0.049278572 -0.67552257 -0.016008137
-14.482104 16.853069 -1.9954941
-5.0605412 5.8889618 -2.0773342
-15.664645 18.28734 -1.7227252
-7.3088803 8.8300066 -2.1184244
-15.119557 19.032602 0.82584989
-13.053753 16.345322 -2.3223774
-15.111599 19.02013 1.2641073
-15.09205 19.011074 -2.2452972
-15.154358 19.071903 2.1470895
-13.801756 20.328127 -2.4171987
-15.164071 19.07839 3.468359
-15.032799 16.231342 -2.3195441
-15.172952 19.083754 4.7970166
-15.24585 16.47006 -1.9464048
-15.197909 19.108076 6.5662045
-13.922142 20.509571 -1.9900411
-15.103045 19.017199 -0.49088594
-13.324091 21.295006 -1.182641
-13.327654 21.298262 -0.7278623
-15.097552 19.016212 -1.8075105
-13.324982 21.291203 -0.27324486
-15.10326 19.021614 -1.3692902
-13.324354 21.287527 0.18187474
-15.104284 19.020891 -0.93048829
-16.238346 17.582701 -0.34448084
-14.519897 19.758253 -1.4546957
-16.248512 17.59239 0.086598843
-14.517207 19.75222 -1.0111321
-16.258926 17.602341 0.51909804
-14.526175 19.76265 -0.5679903
-14.542168 19.782993 -0.12432461
-16.234667 17.582123 -1.2076937
-14.546684 19.78713 0.31992286
-16.228422 17.573296 -0.77570879
-13.924485 20.503469 -0.19693574
-15.674679 18.297607 -1.2884111
-13.942716 20.528879 0.25061256
-15.674772 18.295799 -0.85299337
-13.94126 20.524237 0.69886136
-15.680146 18.300404 -0.41742429
-15.680615 18.299055 0.017699992
-13.910069 20.4863 -1.0928165
-15.686353 18.304102 0.45340642
-13.910684 20.484818 -0.64457715
-15.116501 19.03274 -0.052613452
-13.900784 20.474539 -1.5390377
-15.110678 19.023058 0.3858473
-16.222586 17.570284 -1.6389663
-12.610536 20.286552 -2.4252989
-5.4604979 6.4636936 -2.093713
-13.264789 21.375698 -2.0950832
-5.965661 7.1293497 -2.1138239
-13.264278 21.372185 -1.6393394
-8.1931753 10.064479 -2.1855166
-13.275753 21.378014 0.63779038
-10.9404 13.684424 -2.2758708
-14.444928 19.808104 -2.3415999
-3.5917215 4.0012608 -2.0330563
-14.451229 19.814819 -1.8987057
-6.5582027 7.9101248 -2.1328928
-14.498137 19.868031 0.76540947
-9.3447142 11.581801 -2.2171409
-14.06844 16.474058 -2.3393693
-0.049278572 -0.67552257 -0.016008137
-15.611319 18.359526 -2.1592259
-5.0399437 5.9095325 -2.0782204
-15.613517 18.360283 -1.7241478
-7.2756577 8.8553143 -2.118305
-15.055502 19.091452 0.82636893
-12.996664 16.39381 -2.3225915
-15.062072 19.098028 1.2660052
-15.047317 19.09523 -2.2486339
-15.085324 19.124491 2.1473379
-13.747881 20.406084 -2.4203663
-15.109388 19.149921 3.4719372
-14.83699 16.128229 -2.2982297
-15.122879 19.16139 4.8033419
-15.222774 16.564915 -1.9508864
-15.138105 19.17308 6.5705404
-13.863317 20.581297 -1.9919554
-15.048714 19.088751 -0.4910979
-13.255533 21.354935 -1.1830982
-13.254978 21.351349 -0.72781461
-15.040782 19.084538 -1.8087047
-13.281128 21.392305 -0.27361643
-15.044066 19.086788 -1.3699145
-13.266117 21.364605 0.18242177
-15.042686 19.082891 -0.93068296
-16.190365 17.657118 -0.34456968
-14.455369 19.81846 -1.4551294
-16.187288 17.651831 0.086849771
-14.459603 19.822233 -1.0118308
-16.216164 17.682821 0.5200333
-14.470841 19.83597 -0.56835228
-14.489069 19.859642 -0.12420766
-16.184032 17.653521 -1.2084354
-14.484364 19.8507 0.32039228
-16.172546 17.638674 -0.77584845
-13.87227 20.585312 -0.19695951
-15.610891 18.355139 -1.2883773
-13.877328 20.59066 0.25104293
-15.608459 18.350231 -0.85275269
-13.878065 20.589355 0.6996873
-15.618883 18.361042 -0.41731408
-15.621886 18.362787 0.017957287
-13.853537 20.561377 -1.0939156
-15.632672 18.374037 0.45402908
-13.851988 20.556553 -0.64501101
-15.057284 19.097965 -0.052389167
-13.844278 20.549562 -1.5407003
-15.05633 19.094624 0.38648406
-16.179892 17.650616 -1.6408576
-12.468133 20.213957 -2.4117
-5.4285221 6.4732208 -2.0909123
-13.187742 21.421717 -2.0948133
-5.9313312 7.1406021 -2.1112125
-13.197446 21.435352 -1.64033
-8.1556425 10.092864 -2.1853817
-13.219141 21.458403 0.63907743
-10.878279 13.706523 -2.2732022
-14.377914 19.864777 -2.3420849
-3.5685594 4.004549 -2.0290964
-14.397891 19.891146 -1.9008491
-6.5069571 7.9045906 -2.1258447
-14.442373 19.941271 0.76653618
-9.2899694 11.59838 -2.2141545
-14.03357 16.553799 -2.3433242
-0.049278572 -0.67552257 -0.016008137
-15.572416 18.447784 -2.1628053
-5.0145988 5.9238338 -2.0771689
-15.562076 18.4331 -1.7255695
-7.2423506 8.8805027 -2.1181853
-15.008067 19.172434 0.82783884
-12.948973 16.454809 -2.3245182
-15.009791 19.172623 1.2676977
-14.992599 19.166578 -2.250536
-15.028114 19.192738 2.1493204
-13.667747 20.44376 -2.4189637
-15.047246 19.211815 3.473851
-14.780872 16.182764 -2.2984202
-15.070095 19.235775 4.8089094
-15.115296 16.563774 -1.9446222
-15.068719 19.225554 6.5707898
-13.79985 20.646168 -1.9932469
-14.99167 19.156958 -0.49123234
-13.203069 21.442123 -1.1850067
-13.210718 21.452299 -0.72931749
-14.98372 19.152693 -1.8098981
-13.204021 21.438354 -0.2733463
-14.987013 19.154972 -1.370756
-13.201375 21.431227 0.18287712
-14.985659 19.151077 -0.93117172
-16.13681 17.725395 -0.3445501
-14.392902 19.881725 -1.455792
-16.139017 17.72611 0.087185651
-14.397129 19.885521 -1.0122108
-16.154619 17.742144 0.520356
-14.412902 19.905855 -0.56862533
-14.43334 19.932873 -0.12407249
-16.122589 17.712746 -1.2083958
-14.428665 19.923903 0.32102334
-16.119051 17.70689 -0.77611196
-13.82183 20.670406 -0.19701064
-15.559482 18.427961 -1.2893764
-13.820366 20.66568 0.25164261
-15.557079 18.423056 -0.85332793
-13.821102 20.664364 0.70085257
-15.567471 18.433903 -0.41746417
-15.572991 18.438761 0.018237533
-13.796659 20.636307 -1.0950137
-15.583734 18.450037 0.45480546
-13.803809 20.644932 -0.6459403
-14.997805 19.163006 -0.052164152
-13.78526 20.62109 -1.5421214
-14.999265 19.162851 0.38705683
-16.115829 17.706825 -1.6406231
-12.526584 20.48008 -2.4369485
-5.4128661 6.5044651 -2.0944374
-13.13686 21.512112 -2.0987337
-5.9180603 7.1799107 -2.1161406
-13.13438 21.505201 -1.6418236
-8.0967283 10.092649 -2.1795266
-13.158054 21.531784 0.64016217
-10.842269 13.763336 -2.2760074
-14.335604 19.957266 -2.346638
-3.55673 4.0228901 -2.0316381
-14.344179 19.967365 -1.9029913
-6.4957652 7.9522581 -2.131906
-14.37942 20.004524 0.76729047
-9.2447004 11.627413 -2.213434
-13.973344 16.602539 -2.343106
-0.049278572 -0.67552257 -0.016008137
-15.50807 18.504984 -2.1629105
-4.982245 5.9287109 -2.0732119
-15.497782 18.490263 -1.7256047
-7.1853695 8.8740196 -2.1111414
-14.950662 19.240524 0.82876664
-12.891479 16.502945 -2.3247311
-14.949986 19.237509 1.2687721
-14.932789 19.231409 -2.2517207
-14.982539 19.276783 2.153038
-13.613257 20.521381 -2.4221296
-14.984846 19.273525 3.4757659
-14.94884 16.495596 -2.3334963
-15.016966 19.310041 4.814477
-15.01585 16.571117 -1.9393656
-15.020013 19.305641 6.5802341
-13.738235 20.714212 -1.9948486
-14.936719 19.228218 -0.4914425
-13.139994 21.512011 -1.1860065
-13.147618 21.522224 -0.72982192
-14.935919 19.233482 -1.8122438
-13.149106 21.522039 -0.27351534
-14.93205 19.2262 -1.3718147
-13.144454 21.51145 0.18345726
-14.925932 19.215908 -0.93151224
-16.085598 17.796539 -0.34458345
-14.332422 19.948105 -1.4566826
-16.093046 17.803301 0.087539434
-14.345749 19.965065 -1.0133839
-16.108589 17.819376 0.52120548
-14.356909 19.978888 -0.5689854
-14.377257 20.005976 -0.12393628
-16.074026 17.786854 -1.2093308
-14.372611 19.996981 0.32165545
-16.067896 17.777973 -0.77649903
-13.753702 20.72846 -0.19683275
-15.505238 18.497553 -1.2901678
-13.765195 20.743933 0.25228548
-15.492825 18.480198 -0.85322201
-13.75946 20.732506 0.70179319
-15.503177 18.491079 -0.41728732
-15.521236 18.511518 0.018513227
-13.741572 20.714474 -1.0962808
-15.526917 18.516598 0.45535353
-13.74655 20.719767 -0.64647126
-14.950024 19.243893 -0.051967248
-13.723751 20.689104 -1.5433012
-14.941899 19.230927 0.3876304
-16.064655 17.777882 -1.6417158
-12.352156 20.351736 -2.4170735
-5.3831306 6.5169096 -2.09254
-13.069407 21.574884 -2.1000738
-5.8859453 7.1940899 -2.1143668
-13.081081 21.592102 -1.6445763
-8.0755644 10.142902 -2.1838403
-13.098646 21.60845 0.64134967
-10.782342 13.788202 -2.2738361
-14.274774 20.023449 -2.3482308
-3.5380585 4.0320892 -2.0302789
-14.294627 20.050034 -1.905732
-6.4679484 7.9778862 -2.1325688
-14.341125 20.103827 0.76941508
-9.2087793 11.669004 -2.2149789
-13.91792 16.65728 -2.3437219
-0.049278572 -0.67552257 -0.016008137
-15.450983 18.571301 -2.1640568
-4.9707232 5.9615021 -2.0779719
-15.455718 18.575251 -1.7281331
-7.1613817 8.9115524 -2.1137912
-14.904881 19.324507 0.83037454
-12.85514 16.579636 -2.3287964
-14.892288 19.305424 1.2700539
-14.877456 19.302465 -2.2536209
-14.929428 19.351162 2.1557159
-13.554125 20.592157 -2.4245334
-14.938739 19.357296 3.4815669
-14.982319 16.656057 -2.3478792
-14.951782 19.36842 4.8162475
-14.919128 16.581007 -1.934446
-14.954771 19.363918 6.5825286
-13.689141 20.802288 -1.9983133
-14.883839 19.302551 -0.49172816
-13.084676 21.595514 -1.1877311
-13.07814 21.581617 -0.7299934
-14.878219 19.301369 -1.8134352
-13.089735 21.598698 -0.27360329
-14.876773 19.297293 -1.3728724
-13.0831 21.584631 0.18397649
-14.873085 19.290197 -0.93229377
-16.031462 17.864531 -0.3445622
-14.296538 20.050508 -1.460095
-16.033665 17.865252 0.087809458
-14.28946 20.037914 -1.0142386
-16.046535 17.878347 0.5215295
-14.298314 20.048489 -0.56925654
-14.320838 20.078941 -0.12379907
-16.025129 17.860851 -1.2102649
-14.31169 20.063332 0.32218108
-16.021654 17.854986 -0.777134
-13.698204 20.806555 -0.19682474
-15.458184 18.576357 -1.2915783
-13.705351 20.815311 0.25284508
-15.438352 18.549606 -0.85365957
-13.718955 20.834219 0.70386404
-15.42368 18.529305 -0.41671911
-15.456663 18.568535 0.018761637
-13.68182 20.785763 -1.097207
-15.47232 18.586115 0.45597884
-13.680353 20.78096 -0.64660436
-14.889933 19.30864 -0.051740475
-13.672637 20.773802 -1.5456821
-14.891393 19.308475 0.38839978
-16.007959 17.842768 -1.6422766
-12.346634 20.511633 -2.4301546
-5.3626208 6.5417776 -2.0942571
-13.023697 21.67539 -2.1049585
-5.865407 7.2238836 -2.1167812
-13.019316 21.665089 -1.6463199
-8.0283966 10.158153 -2.1811628
-13.034846 21.678057 0.6423347
-10.727096 13.819205 -2.27266
-14.213668 20.089457 -2.3498228
-3.5238538 4.0473051 -2.0315204
-14.235691 20.119423 -1.9072729
-6.4400406 8.003417 -2.1332314
-14.268508 20.153578 0.76967305
-9.1585999 11.691354 -2.2131252
-13.85734 16.705608 -2.3435028
-0.049278572 -0.67552257 -0.016008137
-15.396108 18.640568 -2.1655493
-4.9383302 5.9661579 -2.0740149
-15.403328 18.647671 -1.7295521
-7.1419015 8.9553699 -2.117825
-14.84448 19.389091 0.83116841
-12.804281 16.637054 -2.3302925
-14.843799 19.386023 1.272162
-14.814738 19.363739 -2.2544453
-14.871267 19.41898 2.1577015
-13.496798 20.666147 -2.4273169
-14.882837 19.428225 3.4851484
-14.890697 16.67182 -2.3427911
-14.895723 19.439209 4.8210573
-14.812166 16.578314 -1.9281842
-14.88703 19.418852 6.5838008
-13.624726 20.866657 -1.9996021
-14.823516 19.367083 -0.49178362
-13.024922 21.671991 -1.1890918
-13.020455 21.661547 -0.73082817
-14.815515 19.362654 -1.8140497
-13.029991 21.675211 -0.27369019
-14.823568 19.371441 -1.3741471
-13.023407 21.661118 0.18452783
-14.817545 19.361126 -0.93292725
-15.974453 17.929321 -0.34448653
-14.233115 20.113325 -1.4607549
-15.981856 17.936123 0.088131085
-14.232846 20.110613 -1.0150923
-15.992079 17.946215 0.52211738
-14.241673 20.121227 -0.56961477
-14.264092 20.151754 -0.12366093
-15.970724 17.928656 -1.210808
-14.252745 20.132805 0.32276124
-15.956879 17.910633 -0.77689749
-13.644472 20.887905 -0.19684398
-15.405807 18.6488 -1.2925746
-13.651591 20.896679 0.25353241
-15.388567 18.62512 -0.85436815
-13.645926 20.885178 0.70424187
-15.316734 18.532759 -0.41543466
-15.349574 18.572094 0.018913994
-13.626009 20.863659 -1.0984718
-15.367662 18.592869 0.45507428
-13.62244 20.855474 -0.64713347
-14.836716 19.382847 -0.051530123
-13.618979 20.855019 -1.547821
-14.838172 19.382683 0.38910517
-15.953609 17.910505 -1.6431022
-12.215002 20.454416 -2.4185209
-5.3305006 6.550868 -2.0914562
-12.945596 21.72057 -2.1046858
-5.8354917 7.241004 -2.1158447
-12.957191 21.737926 -1.6480625
-7.9951954 10.192341 -2.1822982
-12.974699 21.754429 0.64352441
-10.690492 13.87564 -2.2754633
-14.156726 20.161888 -2.3521538
-3.5140424 4.068593 -2.035362
-14.176433 20.18866 -1.9088128
-6.4050775 8.0193605 -2.1315811
-14.222618 20.242796 0.77142668
-9.1340752 11.748673 -2.2175014
-13.808902 16.769344 -2.3453684
-0.049278572 -0.67552257 -0.016008137
-15.345863 18.715948 -2.1677358
-4.9174094 5.9863415 -2.0749002
-15.343199 18.710567 -1.730139
-7.1035914 8.9737339 -2.1163199
-14.788513 19.459963 0.83223486
-12.739076 16.675081 -2.3292198
-14.783113 19.450426 1.273239
-14.761163 19.437695 -2.2567022
-14.824569 19.502726 2.1614227
-13.422228 20.71298 -2.4270542
-14.824265 19.495825 3.4881759
-14.845511 16.741743 -2.3450031
-14.846294 19.519373 4.8281479
-14.75701 16.635838 -1.9286354
-14.839642 19.501642 6.5942712
-13.566371 20.940983 -2.001822
-14.767632 19.437904 -0.49199104
-12.958799 21.737942 -1.1899072
-12.962359 21.741346 -0.73166162
-14.766679 19.443079 -1.8163923
-12.969857 21.751583 -0.27377591
-14.770007 19.445469 -1.3754206
-12.961326 21.733994 0.18504921
-14.766394 19.438375 -0.93385416
-15.919771 17.996994 -0.34446371
-14.171654 20.17926 -1.4616429
-15.932333 18.009914 0.088470668
-14.18037 20.189793 -1.0162622
-15.942518 18.020031 0.52288181
-14.193655 20.207067 -0.57032353
-14.202518 20.21781 -0.1234877
-15.91862 17.999359 -1.2115453
-14.197965 20.208748 0.32345
-15.904844 17.981289 -0.777282
-13.577611 20.948795 -0.19669205
-15.348154 18.714846 -1.2931566
-13.593184 20.971148 0.25413635
-15.333482 18.694254 -0.85480392
-13.585434 20.956223 0.70529824
-15.276844 18.62048 -0.41590777
-15.279811 18.62225 0.019151377
-13.559225 20.924482 -1.0988863
-15.31765 18.668194 0.4558537
-13.557809 20.91968 -0.64736414
-14.783141 19.456944 -0.051318705
-13.552217 20.915812 -1.5485175
-14.775149 19.443865 0.38955137
-15.901553 17.981136 -1.6441923
-12.202379 20.603937 -2.4304216
-5.2938085 6.5535097 -2.0868485
